1364
-0.00589804 0.11883245 -0.16895303
-0.02407574 -0.26679677 -0.16894883
-0.01383925 0.24693349 -0.16888912
-0.07543608 0.27208340 -0.16878842
-0.09656771 -0.27506465 -0.16878647
-0.12243251 -0.26256204 -0.16877206
-0.00589777 0.04359615 -0.16848569
-0.00556430 -0.08058371 -0.16844152
-0.00589777 0.09407068 -0.16836302
0.06308018 0.28035837 -0.16810592
0.11667097 0.28612471 -0.16797382
-0.01383925 0.12186608 -0.16793902
-0.01383925 0.24642088 -0.16782017
-0.11387242 0.27206469 -0.16779606
0.03670666 0.27208340 -0.16775508
0.03811606 0.27208340 -0.16750987
0.08497886 0.27208340 -0.16744401
-0.00589783 -0.16169330 -0.16734631
0.10088661 0.26934761 -0.16712956
-0.00556443 -0.07631834 -0.16685657
-0.03685369 -0.27506435 -0.16658197
0.08302376 0.27208340 -0.16648191
-0.01669943 0.26992518 -0.16610989
-0.00589803 -0.21498871 -0.16606747
-0.12313168 0.28551704 -0.16593035
0.09737076 -0.26573551 -0.16591080
0.02428892 0.28035837 -0.16528125
-0.01383918 0.22361811 -0.16488796
-0.06785977 0.28035837 -0.16465418
-0.00561443 0.12475598 -0.16416332
-0.01383916 0.02963975 -0.16381836
-0.04603947 -0.26678962 -0.16373801
-0.10446676 0.28035837 -0.16371599
0.09895888 -0.27710032 -0.16353352
-0.01383739 -0.03604554 -0.16349092
-0.01383563 0.23530792 -0.16345884
-0.00556844 0.16304471 -0.16333450
-0.14096506 -0.26192003 -0.16333172
0.04153376 -0.26696038 -0.16322762
-0.01379607 -0.25339806 -0.16276066
-0.00557756 0.24311505 -0.16274974
-0.00557396 -0.13475095 -0.16263291
-0.03640968 -0.27505577 -0.16257945
-0.01372722 -0.08321651 -0.16148448
0.08486953 -0.26681471 -0.16069627
0.04976249 0.28032202 -0.16040532
0.01809875 -0.27503604 -0.16016974
-0.14255813 0.28211063 -0.16014864
0.12256423 0.28580332 -0.16009793
-0.00169428 0.27142936 -0.16000186
-0.01362989 -0.13954139 -0.15987197
0.10617404 -0.26060051 -0.15983370
-0.07982691 0.27243590 -0.15976074
-0.01358032 0.07635198 -0.15961106
-0.00588223 0.21689561 -0.15955932
0.01141091 -0.26700455 -0.15952076
-0.01352911 0.18389450 -0.15934156
-0.00602288 0.17490089 -0.15927674
-0.14258015 0.27457076 -0.15895477
-0.00613907 -0.06487197 -0.15884882
-0.12647472 -0.28132319 -0.15877952
0.02332402 0.27930784 -0.15847647
-0.00648264 -0.21014827 -0.15804906
-0.01328280 -0.10726017 -0.15804134
-0.04006976 -0.26786923 -0.15802638
-0.00699266 0.25456786 -0.15802285
-0.02887508 0.27899438 -0.15799671
-0.01326838 -0.20769055 -0.15796930
-0.01326742 -0.09020730 -0.15783614
0.07500527 0.27369952 -0.15779574
-0.01322170 -0.03158473 -0.15772361
-0.01316031 -0.10832316 -0.15766986
-0.07031803 0.27386075 -0.15766960
-0.01260719 0.24723224 -0.15752044
0.05092135 0.27507544 -0.15747024
-0.04306059 -0.26932710 -0.15739566
-0.00788719 -0.14161114 -0.15737540
-0.01245839 0.09539863 -0.15733562
-0.01581934 -0.26596737 -0.15731169
-0.03508482 -0.26961517 -0.15727796
-0.01173035 0.17370127 -0.15726778
-0.01051911 0.13724411 -0.15722607
-0.01097607 0.16756161 -0.15719983
-0.04317468 -0.27024055 -0.15711460
-0.01198780 0.07391177 -0.15711190
0.01516183 -0.27176678 -0.15701059
-0.00959432 0.01497123 -0.15695904
-0.01113884 0.00734354 -0.15686002
-0.12532976 0.26587158 -0.15601404
0.12265145 -0.27967340 -0.15432359
0.11805781 -0.28145140 -0.15164746
0.12317585 -0.27203912 -0.15134978
0.10698056 -0.26062495 -0.15107785
-0.14044428 0.26638252 -0.14956318
0.12030287 0.28622359 -0.14759046
0.10202719 0.27476734 -0.14634803
-0.14065379 -0.28014642 -0.14584897
0.11457340 0.28612572 -0.14550386
-0.12187173 0.28195447 -0.14250027
0.11737814 0.26565236 -0.14216168
-0.14258015 0.27978516 -0.14008552
-0.12302837 0.28536057 -0.13701822
0.10202985 -0.26851290 -0.13455527
0.12025258 -0.26093096 -0.13265227
-0.12676539 0.28676099 -0.13243191
-0.12853515 0.28678125 -0.13095027
0.11873589 0.26581287 -0.12956420
0.12079607 0.26615942 -0.12757187
-0.12372281 -0.28029025 -0.12699443
0.12317569 0.27651298 -0.12669396
0.10614140 -0.28132886 -0.12544833
-0.13679889 0.28666741 -0.12443620
-0.12351677 -0.28020042 -0.12043829
0.10203454 -0.26780909 -0.12033425
-0.14255562 0.28230929 -0.11918351
0.10202737 0.27833819 -0.11402867
0.10202692 0.27588201 -0.11401229
-0.12176415 -0.26899189 -0.11246655
0.10291605 -0.27972114 -0.11206144
0.10202705 0.27533740 -0.11115541
0.11629416 -0.28150064 -0.11080357
-0.12309805 -0.26357615 -0.11018885
-0.12171970 0.26840299 -0.10949653
0.10204200 -0.27542043 -0.10855659
-0.14207600 -0.26390570 -0.10824577
-0.13119628 0.28679538 -0.10805251
0.10204071 0.27084452 -0.10769638
-0.13190255 -0.26035160 -0.10732701
0.12305874 0.27068067 -0.10713225
0.10244703 0.26781166 -0.10470931
-0.14103790 -0.26195812 -0.10435618
-0.14258015 0.27262026 -0.10368756
0.10202685 -0.27305019 -0.10266918
0.12308226 -0.27744782 -0.10233988
0.12273189 0.28526109 -0.09895434
0.10464457 0.26606101 -0.09671411
0.12317585 -0.27153611 -0.09633791
-0.12469858 -0.26199287 -0.09515341
0.12317585 0.27386421 -0.09151806
-0.12937838 0.26565009 -0.08987472
-0.12166810 0.28292024 -0.08708387
0.10439307 0.26613981 -0.08496521
-0.12181605 -0.26846993 -0.08448368
-0.12176458 0.27375996 -0.08416437
-0.12174312 0.28144205 -0.08306488
-0.14258015 0.27409214 -0.08232303
-0.12310489 0.26641321 -0.08183279
-0.12392408 0.26618165 -0.08160646
0.12317389 0.28024524 -0.08096573
-0.12260779 -0.27908254 -0.08088690
-0.12179974 -0.27684653 -0.08010241
-0.12176415 -0.26906574 -0.07974543
0.11206021 -0.28150064 -0.07774107
-0.12172551 0.27067685 -0.07693959
0.10202717 0.27752542 -0.07423504
0.11380044 -0.26068461 -0.07414007
0.11823111 -0.28143919 -0.07097455
-0.12541255 0.28661108 -0.06999296
0.12135489 0.28628880 -0.06939881
-0.14257544 0.28073651 -0.06801419
0.10855673 -0.28147566 -0.06788518
0.11674276 -0.28150064 -0.06659646
-0.12176427 0.27738577 -0.06532984
-0.12171020 0.27537209 -0.06151955
-0.13493204 -0.26038826 -0.05902324
-0.13885961 -0.26081938 -0.05782367
0.10415022 0.26621586 -0.05610199
-0.12145885 0.27155346 -0.05440955
-0.12153735 0.27901310 -0.05298283
0.10202722 0.27462095 -0.05116321
-0.13530207 0.26569933 -0.05086245
-0.13678011 -0.26048398 -0.04975719
0.11677426 -0.26068461 -0.04925162
0.12093230 0.28645605 -0.04568644
-0.14254338 0.28328162 -0.04550058
-0.14051238 -0.26168340 -0.03971760
0.12316991 0.28086555 -0.03945865
0.11158786 0.26564640 -0.03889719
-0.12774721 -0.26082093 -0.03885537
0.10556160 0.26584208 -0.03766943
0.12284877 -0.27318454 -0.03616293
-0.14225398 0.28413713 -0.03191563
0.11984725 -0.26061010 -0.03167868
0.10246216 0.26777673 -0.03086549
-0.12178101 -0.27488840 -0.02940284
0.10885176 -0.28149354 -0.02718049
0.10296495 0.28578752 -0.02588379
-0.12143115 0.27920717 -0.02503625
0.12284271 -0.27253741 -0.02413137
0.12268180 -0.27951664 -0.02214765
0.10421157 0.28622341 -0.02114820
-0.13266553 0.26564640 -0.01980664
-0.13558565 0.28672773 -0.01886759
-0.14229867 -0.27758896 -0.01874638
-0.13072559 0.28679538 -0.01864005
-0.12143115 0.27367800 -0.01766574
0.10365567 -0.26159894 -0.01744692
-0.14192927 0.26774979 -0.01597340
0.10253134 0.26761711 -0.01545678
-0.13999869 -0.28047478 -0.01505897
-0.13206300 -0.26035160 -0.01457571
-0.14257416 0.27154332 -0.01390436
0.11656276 0.26564717 -0.01215331
0.10202685 -0.26974910 -0.01048039
0.12284188 -0.26905733 -0.00958659
0.10706963 0.28668422 -0.00580256
0.10335084 0.26646620 -0.00377173
0.10684820 0.28667128 -0.00290725
0.10960187 -0.28150064 -0.00172568
-0.13622974 0.26574504 0.00018967
-0.12649265 -0.26103848 0.00139830
0.12139149 -0.26112187 0.00190860
-0.14257582 0.28070712 0.00523891
0.12315626 -0.26499081 0.00794739
0.10204702 -0.27618778 0.00865920
-0.12956978 0.26564902 0.00991804
-0.12167907 -0.26820606 0.00996231
0.12041635 0.26610339 0.01020530
0.11461391 0.26564670 0.01138617
-0.14258015 -0.26909566 0.01251604
0.10695696 -0.26047236 0.01430556
-0.12244511 -0.27895582 0.01553392
0.10640129 0.28664517 0.01555608
0.11866676 0.26583606 0.01561932
0.12203065 0.28602248 0.01761998
0.11368998 -0.28150064 0.01766870
0.10323372 0.28590024 0.01794289
0.10270517 0.26721609 0.01892867
0.12316553 -0.27515173 0.01945459
-0.13663775 -0.26047659 0.01961925
0.10250416 -0.27846020 0.02140794
-0.12150107 0.28129864 0.02320873
0.10449960 -0.26106733 0.02338448
-0.12491091 -0.28085536 0.02432481
-0.12238897 -0.26308095 0.02636464
-0.14043224 -0.26164150 0.02760373
-0.12143115 0.27615720 0.02839216
-0.14232616 0.26835680 0.03010216
0.10202685 -0.26931924 0.03079092
-0.12378626 0.26621580 0.03436155
0.12316373 -0.27550721 0.03505650
0.10345158 -0.26172751 0.03528968
-0.13637203 0.26575208 0.03577703
-0.13772310 -0.26053280 0.03674272
0.11320902 -0.28150064 0.03860511
0.10202685 -0.27241242 0.04012305
0.10372747 -0.26155370 0.04227655
-0.14256711 0.27102470 0.04248356
0.11810879 0.26575696 0.04297384
0.11555724 -0.28150064 0.04308157
0.12238146 0.27075005 0.04434349
0.10430516 0.28625429 0.04741205
0.10266647 -0.27895707 0.04974205
0.12080224 -0.26067817 0.05029219
0.10205144 -0.26537627 0.05360331
-0.12270154 0.26699257 0.05470478
0.10471763 0.28639060 0.05589760
-0.14254844 -0.27661693 0.05687330
0.10593929 -0.28131658 0.05777796
0.10258286 0.26749825 0.05875016
0.12245411 0.27145362 0.05901026
0.12315579 0.28273487 0.06149178
0.12209474 0.26803052 0.06154562
-0.14203088 0.26790518 0.06272370
0.11491942 0.26564682 0.06661627
-0.13550211 0.26570922 0.07512959
-0.12178052 -0.27572095 0.07589757
0.12315684 0.28259456 0.07602976
-0.14258015 0.27261370 0.07708410
0.10710301 0.28668612 0.07817372
0.11414317 -0.26035160 0.07876679
0.12280370 -0.27888685 0.07951242
-0.12143115 0.27855718 0.08321936
-0.13523240 0.28641188 0.08413704
-0.12163185 -0.27145481 0.08772091
0.10239191 0.26793879 0.08860880
-0.14175107 -0.27869844 0.09171345
0.12282893 0.27599233 0.09318235
0.12313936 -0.26480651 0.09456205
-0.12511206 -0.28090030 0.09522248
0.12226893 0.26966053 0.09702926
0.10319262 -0.28001314 0.09909442
0.12052280 0.26615101 0.09912205
0.12304834 -0.26432574 0.09940791
0.12197672 0.26695579 0.10097161
0.11427845 -0.26035160 0.10106511
-0.12607966 -0.26054853 0.10152788
-0.14256066 -0.26659882 0.10226018
0.11123464 -0.26035160 0.10273484
0.12317585 -0.27041662 0.10400928
0.12226228 0.26842093 0.10408428
-0.12878439 0.28655934 0.10579115
-0.13751253 0.28629827 0.11232113
0.11977401 -0.26052111 0.11504679
0.10548361 0.26584655 0.11720482
-0.14166877 -0.27886516 0.11725704
-0.12855725 0.26565474 0.11748121
-0.12592892 -0.26055610 0.11796216
0.11743134 -0.26035643 0.11907123
0.12317260 0.28050864 0.11942586
0.10515934 -0.26065171 0.11968821
-0.12183513 0.26823705 0.12194490
0.11422610 -0.26038575 0.12245962
-0.14213227 -0.26402187 0.12506333
0.12028227 0.28659469 0.12549114
0.11330087 0.26564640 0.12729427
0.11143982 0.26564640 0.12852380
0.10202685 -0.27171969 0.13512640
0.10695869 0.28667772 0.13581857
-0.13511357 -0.26039767 0.13583674
-0.12567228 -0.28121090 0.13817529
-0.12717380 0.26566267 0.13894594
0.11513859 -0.26068461 0.14017239
-0.13140799 -0.28150064 0.14484943
0.10202685 -0.27212280 0.14763924
0.12317111 0.28070676 0.14803721
-0.12155580 0.28243887 0.14804918
-0.12197623 0.28432894 0.15102290
0.12094979 0.26633662 0.15530382
-0.12877207 0.26565355 0.15678988
0.10564309 -0.28129858 0.16057661
0.11283919 -0.26065856 0.16231814
-0.14167601 -0.27885050 0.16322067
0.10202720 0.27469629 0.16393356
-0.12814774 -0.28140676 0.16632012
-0.12143115 0.27604014 0.16712320
-0.12268818 -0.26249844 0.16785903
-0.12560289 -0.26066196 0.16883734
-0.13479589 -0.26038122 0.17225865
0.12079231 -0.28118217 0.17248748
-0.13834062 -0.26056480 0.17279002
0.12235644 0.26825482 0.17460893
-0.12445725 -0.26124477 0.17521352
0.11737710 0.26565319 0.17635691
0.10465311 -0.26097059 0.17705962
0.10202690 0.27594972 0.17758347
-0.14258015 0.27422220 0.18285193
0.11190096 0.26564640 0.18298411
0.11777148 0.28676540 0.18716355
-0.13278441 -0.28150064 0.18832634
-0.13910452 0.26603931 0.18956046
0.11921033 0.28666759 0.18990479
0.11042753 -0.28150064 0.19018336
-0.14155021 -0.26281983 0.19022471
-0.13484292 0.26567674 0.19179140
-0.13500732 0.26568484 0.19301370
0.10203445 -0.26782161 0.19349068
-0.14256489 0.28138232 0.19441895
-0.14258015 -0.27208155 0.19550125
0.11641833 0.28679460 0.19712222
-0.12143115 0.27656603 0.19881701
0.12308311 -0.26452148 0.19908819
0.10565206 0.28645980 0.20064248
0.12149443 -0.26139784 0.20094983
-0.14255628 0.28195763 0.20612442
0.11164153 0.28648680 0.20902221
-0.14063378 -0.26179641 0.21006790
-0.12145776 0.28242809 0.21137804
0.10556604 0.28626275 0.21359201
0.12063707 -0.28127021 0.22009039
-0.13145785 0.03308972 0.22117528
-0.13162175 0.14315605 0.22117573
-0.13237272 0.11429280 0.22117773
-0.13163432 0.00070772 0.22117978
-0.12961945 -0.25348341 0.22118492
-0.13200234 -0.22138204 0.22119652
-0.13181828 -0.05216366 0.22119960
-0.13613024 -0.28140336 0.22120468
-0.13266708 0.21874240 0.22121598
-0.13074474 0.00100751 0.22121949
-0.13056923 0.01909744 0.22124486
-0.13116468 0.17811199 0.22131938
0.11370432 0.12323453 0.22133023
-0.13408037 -0.10173906 0.22133760
-0.03590286 -0.27124709 0.22135395
-0.09032727 -0.27184546 0.22135621
0.02684575 -0.27231455 0.22135799
-0.13436235 -0.16560018 0.22138998
-0.13437501 0.08810920 0.22139233
-0.11363431 0.27603883 0.22142917
-0.13459001 0.03528609 0.22143228
-0.07559901 -0.27298379 0.22148398
-0.12904772 0.03005232 0.22151174
0.11470598 -0.24822316 0.22152774
-0.13510580 0.10623853 0.22152811
-0.10961375 0.27603698 0.22153813
-0.13518493 -0.18773460 0.22154281
0.04765194 0.27594751 0.22154327
0.09322568 -0.27378887 0.22158347
0.00751475 0.27516210 0.22159505
-0.12932396 0.19753855 0.22160792
-0.01993513 0.27437538 0.22164692
0.06874926 -0.26801026 0.22165112
0.04775413 0.27842087 0.22166859
-0.12920424 -0.17006916 0.22169329
-0.13530548 0.00897485 0.22171444
-0.12911676 -0.25160074 0.22173440
0.08497824 0.27340245 0.22184256
-0.02738941 -0.27442592 0.22194403
0.06269252 0.27906936 0.22196238
0.11552900 0.19188374 0.22202510
0.12120722 0.28634977 0.22206627
0.10556823 0.26503628 0.22220504
0.11223142 0.09212705 0.22222170
-0.12886870 -0.24611995 0.22230116
-0.05565137 0.27937996 0.22231928
-0.12896839 -0.08983755 0.22240788
-0.04834759 -0.26728833 0.22243282
0.11591062 0.02504572 0.22244313
0.10169617 0.26844078 0.22244534
-0.13558757 -0.13894378 0.22246455
-0.00928252 -0.26739025 0.22258708
-0.13567454 0.00924535 0.22269578
-0.04178943 0.27969068 0.22270803
0.11176462 0.19051903 0.22280778
-0.09983806 -0.27476221 0.22283737
0.11593862 0.19332075 0.22286493
-0.13574474 -0.08329204 0.22288245
-0.05414484 -0.26709443 0.22290380
-0.12861125 -0.23774168 0.22290500
-0.13578802 -0.10774571 0.22299758
0.11632085 0.12567312 0.22304495
-0.13580599 0.03209836 0.22304533
-0.10095850 -0.26702631 0.22306937
-0.13374943 -0.28150064 0.22309537
-0.13583054 -0.20066689 0.22311059
-0.12802352 0.21375501 0.22327226
-0.12872434 -0.07297056 0.22345284
0.04563487 -0.27501553 0.22373258
0.06432713 -0.27501649 0.22378722
-0.04219619 -0.26684237 0.22409874
0.11133337 -0.10387310 0.22411075
0.03896296 -0.26717108 0.22430554
-0.06079421 -0.26683265 0.22454754
-0.13601813 0.13702343 0.22480400
0.11661037 -0.02192682 0.22483440
0.10005147 -0.27773291 0.22494297
0.00637337 0.27981341 0.22502430
0.11085613 -0.21762559 0.22504485
0.03368177 -0.27503800 0.22506005
-0.12797531 0.14822920 0.22516030
0.11021888 -0.24413703 0.22526857
0.11669263 0.01431615 0.22585665
-0.12787901 0.21087986 0.22604816
-0.13611507 -0.22892912 0.22608678
0.07866524 0.27208567 0.22633459
0.11673258 -0.09795787 0.22635309
0.11044316 -0.05545836 0.22656153
-0.13614230 -0.09588664 0.22704454
-0.06179116 -0.27506238 0.22749034
-0.12786961 0.16984209 0.22756663
-0.12808789 -0.18281972 0.22764009
-0.02033299 -0.27506250 0.22770688
-0.13614251 -0.18610829 0.22797070
-0.13614252 -0.21302532 0.22800912
0.02832167 -0.27506280 0.22809638
0.11673885 -0.24961731 0.22857048
-0.13447970 -0.28148770 0.22874615
0.11673885 -0.20726894 0.22895132
0.11618448 0.12704495 0.22919700
0.11673885 -0.14278962 0.22929466
0.10969140 0.21507421 0.22933246
-0.13614285 -0.02685831 0.22934860
-0.13614285 0.01901226 0.22939397
-0.10153597 0.28035837 0.22971173
0.11645751 0.07874858 0.22996755
-0.12623385 -0.28131032 0.23004010
0.04793508 0.28002536 0.23043926
-0.13614315 -0.04797070 0.23084241
0.10959278 0.15968585 0.23089822
0.11577200 0.23773929 0.23105268
-0.12816124 -0.10434122 0.23110567
0.03341683 0.28006899 0.23119582
0.11673885 -0.12965021 0.23123284
-0.12786815 0.05745462 0.23152533
-0.13614315 0.10388938 0.23153040
0.10816883 0.28641611 0.23185420
0.11663506 -0.19655369 0.23192595
-0.04718558 0.28035837 0.23228294
0.11673885 -0.05753468 0.23237477
0.10932165 0.16230625 0.23260662
-0.12835254 -0.01284915 0.23289533
0.11655661 -0.18583146 0.23291299
-0.08140905 -0.27506465 0.23304249
0.06522699 -0.26691931 0.23316953
-0.12786815 0.01596381 0.23325703
0.11651276 -0.24789938 0.23346484
0.11640585 0.03488290 0.23355795
0.03443332 0.27208340 0.23362665
0.11640585 0.08187886 0.23364262
0.02239291 -0.26721174 0.23368669
-0.07602444 0.28035837 0.23404792
-0.13614315 0.15473709 0.23418848
0.05977808 -0.27506465 0.23424895
-0.13614315 0.02576046 0.23432285
-0.13614315 -0.22158980 0.23468430
0.09914987 0.28154492 0.23478819
0.11640578 -0.22795165 0.23483729
0.12316389 0.27187002 0.23508258
-0.13614315 0.17229261 0.23510078
-0.13614315 0.24576762 0.23518400
-0.13614281 0.25120783 0.23525290
-0.12786815 0.22006406 0.23529816
0.12315875 -0.27637750 0.23530965
0.11640395 -0.17995000 0.23546642
-0.13614236 -0.06579502 0.23564152
-0.12786815 0.11898948 0.23580766
-0.05588320 -0.26678962 0.23592991
0.03582059 -0.26678962 0.23599133
0.11640555 0.06455664 0.23605426
0.11673640 -0.10326745 0.23626389
-0.12799211 0.03943350 0.23637128
-0.01202415 -0.26695687 0.23649587
0.11673597 -0.11605968 0.23651773
-0.12786815 0.11212104 0.23655939
-0.12786815 -0.23841698 0.23704906
0.02005550 -0.27506465 0.23710606
0.08207982 -0.26678962 0.23742418
-0.04447224 0.27208340 0.23781489
-0.12787421 0.25619966 0.23812798
0.11673322 -0.11683547 0.23814982
-0.13614315 0.10403862 0.23822482
-0.12786815 0.16985266 0.23828530
-0.13630480 -0.14612862 0.23985666
-0.05974608 0.28038013 0.23991169
0.03296309 -0.26678985 0.23996526
0.11092185 -0.28151673 0.23999321
0.12165825 -0.26108092 0.24046566
-0.13613597 0.03358634 0.24074259
0.11684418 0.17270333 0.24074823
-0.13613528 0.10859382 0.24090996
0.02245954 -0.27505636 0.24100307
0.11692321 0.21926662 0.24106839
-0.12904517 0.28715611 0.24109888
0.11660814 0.25112396 0.24122566
-0.10230775 -0.26679015 0.24124534
0.10786117 0.26350927 0.24128109
-0.14259535 -0.27558875 0.24128890
0.11712760 -0.02862822 0.24137078
-0.03810096 -0.27552551 0.24158262
0.12428536 0.27221203 0.24165575
0.11718027 0.23330769 0.24211997
0.03842465 -0.27529669 0.24272005
-0.14242285 -0.26673436 0.24280150
-0.13646474 0.17211860 0.24291879
-0.11538769 0.27201426 0.24300298
0.04934663 -0.27544391 0.24306004
-0.14266951 0.27180594 0.24323039
0.11763182 -0.13413294 0.24328269
-0.02792144 -0.27586603 0.24343181
-0.12776759 -0.07862291 0.24381430
0.06511471 0.28086704 0.24391185
-0.12842721 0.01213382 0.24396385
0.11818904 -0.19326772 0.24414490
0.11824711 -0.20648347 0.24420394
-0.13703030 0.18511708 0.24421485
0.04552298 0.28104049 0.24424848
-0.12769398 -0.07151467 0.24428059
0.10867611 0.26153541 0.24433176
-0.12681255 0.29022080 0.24446392
0.11778674 0.12605695 0.24462253
0.10824168 0.26311630 0.24467415
0.11986942 -0.25770777 0.24491388
-0.13740207 -0.11203675 0.24496722
-0.12822716 0.07261798 0.24535963
-0.12787358 0.10393251 0.24547192
-0.00910048 0.28281277 0.24568337
-0.13866591 0.08281142 0.24572022
-0.06035687 0.28199452 0.24578217
0.10880729 0.26194781 0.24581476
0.10888211 -0.20547739 0.24591129
0.12061259 -0.23792663 0.24593894
-0.11813688 0.28446859 0.24602792
0.05263647 -0.27803767 0.24603067
-0.12779017 0.13376354 0.24605381
-0.13943899 0.05646902 0.24613065
0.11521558 -0.28149676 0.24616076
0.10880227 0.02764145 0.24617469
0.06299235 -0.27854341 0.24619310
0.00564386 -0.27862233 0.24621800
-0.13974690 0.21396142 0.24622759
-0.02331030 0.27199584 0.24638860
0.12205781 -0.24943697 0.24646667
-0.14065078 0.07804393 0.24651216
-0.04076399 0.27199179 0.24653555
0.12251948 -0.12630567 0.24654804
0.11916946 0.09868502 0.24661919
-0.01082328 -0.27875870 0.24676055
0.11987323 0.03940566 0.24686140
-0.14187618 0.01756947 0.24689795
-0.05044539 -0.33881915 0.24690600
-0.00246576 -0.32773429 0.24690600
-0.03889445 -0.32486981 0.24690600
-0.00952200 -0.32363182 0.24690600
-0.16991957 -0.31879866 0.24690600
-0.13183621 -0.31775367 0.24690600
-0.04887033 -0.31702369 0.24690600
-0.05376654 -0.31628650 0.24690600
0.04815067 -0.31046128 0.24690600
0.06027031 -0.31011921 0.24690600
-0.12208412 -0.30982143 0.24690600
0.07134005 -0.30954593 0.24690600
-0.12345002 -0.30869633 0.24690600
-0.10846502 -0.30606025 0.24690600
0.03223951 -0.30256194 0.24690600
0.08921459 -0.30197614 0.24690600
0.00043045 -0.29754323 0.24690600
-0.01384562 -0.29377931 0.24690600
0.01104160 -0.29315162 0.24690600
-0.15307644 -0.29193377 0.24690600
0.10272965 -0.29175830 0.24690600
0.05672995 -0.29112321 0.24690600
0.06661620 -0.28932315 0.24690600
-0.13952938 -0.28930044 0.24690600
0.03731798 -0.28880453 0.24690600
-0.15666050 -0.28672999 0.24690600
-0.16247842 -0.28488845 0.24690600
-0.15097126 -0.28402334 0.24690600
-0.16022959 -0.27981073 0.24690600
-0.15529522 -0.24797560 0.24690600
0.14063139 -0.23582263 0.24690600
0.15557028 -0.23145343 0.24690600
0.14327754 -0.18404692 0.24690600
0.17870489 -0.16762856 0.24690600
0.17255300 -0.15902647 0.24690600
0.17326604 -0.13796657 0.24690600
0.13422562 -0.06791535 0.24690600
0.12983537 -0.06209084 0.24690600
-0.18632157 -0.02733092 0.24690600
0.13907117 -0.00786561 0.24690600
-0.17234062 0.00186982 0.24690600
-0.17039935 0.00225487 0.24690600
-0.17616387 0.01235898 0.24690600
-0.14742090 0.01653795 0.24690600
-0.17818856 0.03485999 0.24690600
-0.14560713 0.03770788 0.24690600
-0.15333356 0.06735808 0.24690600
-0.14781375 0.08456185 0.24690600
-0.15578161 0.12330980 0.24690600
-0.16272330 0.12789480 0.24690600
-0.14672697 0.14735104 0.24690600
-0.15773712 0.14917463 0.24690600
-0.14694656 0.16437532 0.24690600
-0.15377578 0.16611601 0.24690600
-0.15251519 0.17087239 0.24690600
0.13315062 0.18102272 0.24690600
-0.16718541 0.19736068 0.24690600
0.13283856 0.20683381 0.24690600
0.13577043 0.21368560 0.24690600
-0.14649767 0.21602061 0.24690600
-0.17191321 0.22726052 0.24690600
-0.16145153 0.24285062 0.24690600
-0.16418943 0.24408504 0.24690600
-0.16518690 0.24558590 0.24690600
-0.15144396 0.25761485 0.24690600
-0.16397774 0.26813430 0.24690600
-0.07057647 0.29982591 0.24690600
-0.03451932 0.31013179 0.24690600
-0.03746035 0.31067103 0.24690600
0.10580046 0.32474148 0.24690600
0.11899745 0.36398619 0.24690600
0.17437504 0.36412328 0.24690600
0.16909453 0.18067239 0.24690622
-0.14770335 0.26524341 0.24690653
-0.18380693 0.02648401 0.24690655
-0.14978848 -0.00988755 0.24690658
0.13682443 0.14508185 0.24690673
0.10759830 0.30373245 0.24690674
0.11793025 -0.29057938 0.24690676
-0.16893117 -0.01528645 0.24690704
0.13403255 0.33335668 0.24690714
-0.05504193 0.32289129 0.24690749
0.14811437 0.37445408 0.24690779
-0.15851080 -0.00296394 0.24690823
0.09572967 -0.30771053 0.24690828
0.18042617 0.37550420 0.24690831
-0.14482206 0.25807768 0.24690838
0.13988380 0.29723686 0.24690856
-0.16470754 0.06450752 0.24690907
-0.14345643 0.21587831 0.24690947
0.02711841 -0.33138227 0.24690951
-0.16561028 0.08687478 0.24691056
-0.16698514 0.14773409 0.24691068
0.02659868 0.37802809 0.24691081
0.12034869 -0.29906273 0.24691130
-0.14612928 -0.24596021 0.24691188
-0.18448180 0.11773048 0.24691270
-0.16270880 0.00399638 0.24691279
0.10123076 0.37797576 0.24691293
0.19373769 0.34647399 0.24691303
0.06787600 0.37793583 0.24691354
-0.14198512 0.07989338 0.24691382
0.03514173 0.37344033 0.24691525
-0.05251531 -0.30825329 0.24691536
-0.14628842 -0.23002769 0.24691549
0.04982522 0.37743491 0.24691564
-0.14580254 -0.28105724 0.24691592
0.18494894 -0.17695732 0.24691601
0.12665345 -0.02226081 0.24691628
-0.14451459 -0.23473296 0.24691752
0.09067279 0.35774368 0.24691997
0.16144997 0.37793803 0.24692141
0.12508921 0.18343276 0.24692146
0.18259725 -0.08197919 0.24692187
0.18792105 0.33651191 0.24692200
0.03071958 -0.31280994 0.24692287
-0.17719375 0.10543635 0.24692413
0.17232749 0.37800300 0.24692725
0.01763570 0.37877208 0.24692774
0.17587702 -0.21464780 0.24692795
0.07516217 -0.31585306 0.24692804
-0.14346664 -0.03805724 0.24692824
-0.18619473 0.14591183 0.24693078
-0.18461341 0.15027763 0.24693683
0.00477251 0.30665588 0.24693845
0.02924274 0.37840521 0.24693896
-0.14203899 -0.23229612 0.24694547
-0.03150606 -0.27752095 0.24695709
0.18807513 -0.05393519 0.24695741
0.11946751 -0.28115422 0.24696265
-0.09698146 -0.27748394 0.24696301
0.05618438 -0.32084304 0.24696882
-0.17975964 0.11377724 0.24696900
-0.13997664 -0.03922037 0.24697019
0.15173146 -0.25224310 0.24698895
0.04328685 -0.31970853 0.24699657
0.18694152 -0.03957242 0.24699831
0.16990149 0.16237451 0.24700309
-0.06105322 -0.30489033 0.24700342
0.16439310 0.30064875 0.24700460
0.14818399 -0.10296084 0.24700646
0.10378186 0.37847817 0.24701329
0.18684487 0.37642580 0.24701744
-0.19110636 -0.01760302 0.24701791
-0.17705955 0.11527788 0.24701980
0.15229227 0.37912649 0.24702573
0.00098162 -0.32098770 0.24703087
0.16571261 0.28875279 0.24703102
-0.14888325 -0.20488536 0.24703144
0.19633882 0.35235906 0.24704002
-0.15723734 -0.01666868 0.24704218
-0.19171359 -0.30539060 0.24704228
0.19297174 0.35251015 0.24704334
0.06973964 0.37911785 0.24704865
0.16160181 0.37845212 0.24705036
-0.17933618 0.14998810 0.24706627
-0.17856815 0.12828830 0.24707414
-0.19362830 0.16499045 0.24707656
-0.03530166 -0.29747939 0.24708030
0.01757074 -0.31847155 0.24708846
-0.14634313 -0.04488474 0.24709585
0.05240292 -0.33237964 0.24710034
0.16816702 0.29951662 0.24711025
-0.04271391 0.27197576 0.24711977
0.13303152 -0.29396790 0.24712057
0.16274007 -0.10553759 0.24712746
-0.04100333 -0.29308850 0.24713562
-0.11844298 0.32196891 0.24715449
0.18795659 -0.00982062 0.24716885
0.12808791 -0.27754772 0.24718137
0.17534339 0.37876630 0.24718589
0.17148766 0.29813391 0.24719653
0.17054637 0.37911314 0.24719971
0.16660954 0.32617396 0.24721758
0.04712978 0.30801708 0.24722452
-0.13857636 -0.16241503 0.24723826
0.09835143 0.37917924 0.24726202
-0.14216016 -0.22486307 0.24726269
-0.02284605 0.33115333 0.24726550
0.19831875 0.35473055 0.24726671
0.17178318 0.26350909 0.24728097
0.18122858 0.20078230 0.24728578
0.01166005 0.35536003 0.24729727
-0.15622163 -0.02734771 0.24729906
-0.09617615 0.34937662 0.24730408
-0.15928802 -0.02450676 0.24730431
0.16396676 -0.26176757 0.24733052
-0.13992825 -0.01037639 0.24733448
0.19545625 -0.05690087 0.24734113
0.15978698 -0.04747413 0.24734519
-0.11758181 0.33633047 0.24737884
-0.09577604 -0.28788942 0.24738787
-0.14795479 -0.20854919 0.24739340
-0.04549535 -0.27909416 0.24740605
-0.13113992 0.32600319 0.24741437
-0.05089850 -0.29745549 0.24741945
-0.13221650 0.33311301 0.24744312
0.07137943 -0.34286374 0.24744762
-0.08408848 -0.31483608 0.24744773
0.18361212 -0.06079521 0.24746180
-0.15552096 -0.04361935 0.24746291
-0.15801485 -0.04605243 0.24746408
-0.11723071 0.34494865 0.24747226
0.16305301 -0.26724881 0.24747494
-0.08505805 -0.28716123 0.24748601
-0.12468713 0.34609973 0.24748915
0.18241796 -0.07091575 0.24749959
-0.19642004 0.01940630 0.24750403
0.15596239 -0.27327949 0.24751112
-0.12470230 0.35076869 0.24751188
-0.12135371 0.35124540 0.24751242
-0.10129470 0.35508847 0.24752398
-0.07897777 -0.29038548 0.24752522
-0.13035329 0.35213941 0.24752609
-0.07277272 -0.29099607 0.24753155
-0.13902847 0.35021740 0.24753575
-0.15076628 0.34187120 0.24753985
-0.11391062 0.35601729 0.24754350
-0.13727732 0.35369366 0.24754834
0.16022882 -0.28342330 0.24755509
-0.15315570 -0.06548943 0.24756142
-0.07349026 0.35645467 0.24757461
-0.12790711 0.02767255 0.24759176
0.00000431 0.37743109 0.24760498
-0.08599166 0.35849702 0.24761270
-0.14957647 -0.06954368 0.24761373
-0.14919098 -0.06337669 0.24761999
0.16877000 -0.03809388 0.24762075
-0.14006986 -0.08024075 0.24762771
0.18316293 -0.02792535 0.24763322
-0.14921449 -0.07575868 0.24763459
-0.05517523 0.35587704 0.24763763
-0.13889375 -0.08053506 0.24766183
0.19512154 -0.00731069 0.24767143
0.18619002 0.24416073 0.24769512
0.15719818 -0.30736232 0.24770443
-0.14796168 -0.07818018 0.24771051
-0.15147062 0.36013460 0.24771079
-0.09268955 0.36036152 0.24772802
0.17876850 0.15559646 0.24773788
0.17772645 -0.31021839 0.24776061
0.17565881 -0.01092527 0.24779129
0.18462668 0.17975436 0.24779159
0.16751273 0.06010310 0.24779227
0.02198449 0.37940395 0.24779698
0.16378988 0.05389662 0.24780412
0.18116082 0.25139362 0.24780735
0.19285382 0.27810782 0.24780852
-0.19639917 0.36877358 0.24782121
0.19210459 0.27196425 0.24782617
0.17831559 0.11117630 0.24782716
0.18743283 0.36029595 0.24784745
-0.18326920 0.33925951 0.24785058
0.19700341 -0.08082341 0.24785538
0.18185985 0.10679733 0.24785867
0.18698318 0.16112582 0.24786080
0.18886490 0.24301347 0.24786453
-0.08893421 0.37696022 0.24786866
0.19020380 0.21207121 0.24788132
0.18509138 0.13472344 0.24788299
-0.16237324 0.36544454 0.24788491
-0.10323638 0.37661868 0.24788916
0.18220124 0.35261005 0.24789046
0.19036256 0.20543487 0.24789093
0.18802416 0.26395607 0.24789301
0.19221269 0.22195734 0.24789399
-0.14704874 -0.09943425 0.24789640
-0.02305723 0.37644988 0.24789852
0.18280809 0.12006006 0.24789925
-0.01497206 0.37786961 0.24790598
0.14598440 0.12072346 0.24790649
0.19118905 0.06596563 0.24790800
0.19446251 0.07875926 0.24790800
0.19533299 0.12995258 0.24790800
0.19322230 0.20070004 0.24790800
0.18705554 0.34793460 0.24790820
0.18694697 0.35108656 0.24790843
0.18498826 0.01760606 0.24790886
-0.02445664 0.37059730 0.24790891
0.18819562 0.35667443 0.24790908
-0.04238921 0.37259805 0.24790999
-0.04805433 0.37275928 0.24790999
-0.14289419 -0.08839718 0.24791862
0.18712990 0.25284153 0.24792026
-0.14791599 -0.13657150 0.24792251
0.18606959 0.11940523 0.24793141
0.19594587 0.24417460 0.24793772
-0.15333211 -0.16424870 0.24794000
-0.15201004 -0.15059097 0.24794200
0.19238435 -0.00079834 0.24794681
-0.12711501 -0.14794016 0.24794818
0.18725701 0.15489338 0.24795613
-0.13903828 -0.12397359 0.24795872
0.19662060 0.15090276 0.24798580
0.19716772 0.01791547 0.24798815
-0.14018504 -0.14818674 0.24800821
-0.14034417 -0.14737988 0.24801318
-0.12759675 0.08529321 0.24801989
0.19764718 0.10516619 0.24805810
-0.14613128 -0.13569237 0.24805921
-0.14754738 -0.19817367 0.24807993
-0.14707281 -0.18512186 0.24808972
0.00092158 -0.35335940 0.24810190
-0.14395200 -0.14213437 0.24812126
-0.14599355 -0.19283143 0.24812338
-0.14595750 -0.19336210 0.24812376
-0.15154071 0.36852032 0.24812679
-0.15663850 0.37858117 0.24818760
-0.02371733 -0.35405970 0.24819230
0.02731382 -0.36715233 0.24819385
-0.18640979 0.37873888 0.24820848
0.19913211 -0.07693100 0.24823092
-0.00112506 -0.35548759 0.24833156
0.03571813 -0.36681831 0.24837677
-0.04608062 -0.35578603 0.24838264
-0.03542714 0.37914646 0.24845944
-0.19189779 0.33589333 0.24848002
0.20083001 0.14899667 0.24854816
-0.12892023 -0.33802283 0.24855064
0.20006780 -0.21807903 0.24859361
-0.18867077 0.30008167 0.24866547
0.19883595 -0.31344098 0.24870618
0.20067428 -0.14851665 0.24874091
0.20123751 -0.22430290 0.24877514
0.00003357 -0.36712229 0.24881233
-0.19203265 -0.22465967 0.24882108
0.05640768 0.37976617 0.24883908
-0.19860999 -0.28314596 0.24884295
0.20258491 -0.12797019 0.24895413
0.20316418 -0.00368049 0.24895547
-0.19630274 0.32660234 0.24897876
0.20271027 -0.23020640 0.24899121
0.20338725 -0.20756751 0.24899383
0.15127696 0.37981790 0.24899897
0.20322415 -0.08752190 0.24903113
0.20318407 -0.26784664 0.24903801
-0.20160247 0.35657763 0.24904998
0.20229337 -0.35675478 0.24905048
0.20338878 -0.06255484 0.24906383
0.20339938 -0.08975759 0.24906614
0.20341171 -0.12728617 0.24906887
0.20340991 -0.21552791 0.24909028
-0.12642390 0.25200605 0.24909639
-0.05870169 0.37958813 0.24912232
0.20052721 -0.35731810 0.24913654
-0.00820543 0.37961930 0.24917947
-0.20117036 0.35227436 0.24919948
-0.20131408 0.19657859 0.24922237
-0.11029321 -0.26522762 0.24926952
0.20345902 -0.17941509 0.24930534
-0.12627612 -0.16133364 0.24933745
0.19884515 -0.36889631 0.24945933
0.10344823 -0.37461525 0.24947511
-0.20172395 -0.03370894 0.24949180
0.20276447 0.04448132 0.24949996
0.07056461 0.37983012 0.24958944
0.20350397 -0.18694624 0.24963301
0.17252295 -0.36922526 0.24967231
-0.12625580 0.18925503 0.24972530
-0.19972345 0.33368421 0.24973433
-0.12656517 0.11780390 0.24978369
0.20352693 -0.30826086 0.24989861
0.20317338 0.30158037 0.24990961
-0.12573035 -0.11167529 0.25022641
-0.20259969 -0.32134694 0.25023890
0.20356014 0.09770476 0.25056207
-0.20302230 -0.32720011 0.25058621
0.20357224 -0.23961641 0.25063542
0.20357470 -0.09787142 0.25073472
0.09986142 -0.37732399 0.25074044
0.04656718 -0.26431495 0.25074688
-0.10008232 -0.36988389 0.25075153
0.20357963 0.35977888 0.25093341
-0.05839057 0.27069980 0.25096706
0.10874807 0.03072044 0.25112203
0.20358436 -0.31388086 0.25112432
0.17967777 0.37960035 0.25124943
0.10772827 0.24650383 0.25127566
0.10881903 -0.08015951 0.25140041
-0.20360298 0.04010873 0.25140986
-0.20357320 -0.32193679 0.25151139
0.20359413 -0.18267456 0.25151882
-0.20351107 0.22883523 0.25169849
-0.20350969 0.34218925 0.25169885
0.10873516 0.05632448 0.25172481
-0.12321391 0.26227403 0.25173789
-0.20350344 -0.32578480 0.25174081
0.09265103 -0.37879854 0.25174880
0.10879670 -0.17428173 0.25179839
-0.05638114 0.26993775 0.25180060
0.10876363 0.01026516 0.25181022
0.20360298 -0.11623865 0.25187582
-0.12407359 -0.22623767 0.25191584
-0.20343339 -0.17027481 0.25195286
-0.11394342 -0.26282787 0.25196561
0.10823320 0.07579047 0.25221616
0.10876884 -0.19278812 0.25225317
0.10776025 0.09839180 0.25231817
0.02178613 0.26918191 0.25233206
-0.10108465 0.37976229 0.25236654
0.20349599 -0.07634944 0.25237602
-0.12379320 0.17589208 0.25241804
-0.20328103 -0.10703662 0.25245845
0.20337944 -0.22363652 0.25260434
-0.20302296 -0.37833667 0.25267971
0.10869899 0.22518440 0.25269577
0.10809310 0.11402056 0.25270751
0.10875934 -0.17622189 0.25283590
0.07708660 -0.26136464 0.25284207
0.20324311 0.03481717 0.25288087
-0.20313640 -0.18366565 0.25293845
0.20319894 -0.30385798 0.25295788
0.10869518 0.01772225 0.25295824
-0.12272279 0.02288060 0.25309131
-0.04002364 -0.37897629 0.25311944
0.20311186 0.13058825 0.25314209
0.10291697 0.37857747 0.25316405
0.20309924 0.06201884 0.25316721
0.11561385 -0.37964749 0.25317711
-0.20305592 0.16632013 0.25321010
0.11964953 -0.37971300 0.25333977
0.02691709 -0.25540364 0.25334400
-0.09012161 -0.25441688 0.25334400
-0.02713618 -0.25269979 0.25334400
-0.01598708 -0.25253385 0.25334400
0.05640401 -0.25252926 0.25334400
0.03074398 -0.25101173 0.25334400
-0.04826498 -0.24656536 0.25334400
0.07959658 -0.24476436 0.25334400
-0.05208655 -0.24435891 0.25334400
-0.08189256 -0.24404782 0.25334400
0.09760099 -0.23693253 0.25334400
-0.00997822 -0.23589519 0.25334400
-0.00723434 -0.23515844 0.25334400
0.08942630 -0.23156999 0.25334400
-0.03667536 -0.22649352 0.25334400
-0.03975987 -0.22374736 0.25334400
-0.08256815 -0.21874247 0.25334400
-0.05299003 -0.21813631 0.25334400
0.02688899 -0.21295856 0.25334400
0.01122413 -0.20396671 0.25334400
0.05927954 -0.19964138 0.25334400
0.04950315 -0.19794235 0.25334400
0.08497280 -0.19360109 0.25334400
-0.02398395 -0.19303846 0.25334400
-0.01909232 -0.19260658 0.25334400
0.05122503 -0.19249955 0.25334400
0.09643626 -0.18568507 0.25334400
-0.04822984 -0.17331383 0.25334400
-0.06990616 -0.17253406 0.25334400
0.05624539 -0.16912620 0.25334400
-0.06011764 -0.16257375 0.25334400
-0.01375741 -0.16178058 0.25334400
-0.03098737 -0.16086708 0.25334400
-0.10049030 -0.15783888 0.25334400
-0.03682436 -0.15689129 0.25334400
-0.01870941 -0.15581332 0.25334400
0.04898379 -0.15480344 0.25334400
0.07990757 -0.15255329 0.25334400
-0.09585469 -0.15200320 0.25334400
-0.04542193 -0.15169980 0.25334400
0.09405462 -0.15094718 0.25334400
0.07843561 -0.14737602 0.25334400
-0.04848972 -0.14728814 0.25334400
0.04766997 -0.14688919 0.25334400
-0.05196535 -0.14412236 0.25334400
-0.11487824 -0.14261663 0.25334400
0.01452015 -0.13970670 0.25334400
0.03965623 -0.13684070 0.25334400
-0.10838108 -0.13537891 0.25334400
-0.07549527 -0.13367228 0.25334400
0.09954572 -0.13357975 0.25334400
-0.05855217 -0.13283440 0.25334400
-0.08401910 -0.12790947 0.25334400
0.00469578 -0.12503321 0.25334400
-0.02017817 -0.12000939 0.25334400
-0.08029780 -0.11870128 0.25334400
-0.00217140 -0.11850123 0.25334400
0.03761429 -0.11764692 0.25334400
0.09487902 -0.11636975 0.25334400
-0.08209854 -0.11486913 0.25334400
0.05644876 -0.11102431 0.25334400
0.08165149 -0.10968733 0.25334400
-0.07925800 -0.10758122 0.25334400
0.00770779 -0.10008372 0.25334400
0.09981930 -0.09982050 0.25334400
-0.06088490 -0.09856845 0.25334400
-0.02950652 -0.09839467 0.25334400
-0.01289267 -0.09017339 0.25334400
0.00917900 -0.08940593 0.25334400
-0.02436147 -0.08693942 0.25334400
-0.04637543 -0.08623926 0.25334400
0.08342340 -0.08549913 0.25334400
0.09034792 -0.08457135 0.25334400
0.08662050 -0.08056571 0.25334400
-0.06957193 -0.07967226 0.25334400
-0.10792620 -0.07126851 0.25334400
-0.03424984 -0.06546853 0.25334400
0.06255247 -0.06460572 0.25334400
0.05571326 -0.05978731 0.25334400
-0.02087262 -0.05719776 0.25334400
0.09388077 -0.05644970 0.25334400
0.09199337 -0.05364682 0.25334400
-0.05340825 -0.05137703 0.25334400
-0.09471242 -0.04818473 0.25334400
-0.11631684 -0.04784802 0.25334400
0.01604543 -0.04487134 0.25334400
0.09064730 -0.04365065 0.25334400
0.03273223 -0.04287585 0.25334400
-0.08918565 -0.03943913 0.25334400
-0.04648796 -0.03897977 0.25334400
-0.05725526 -0.03683122 0.25334400
-0.07472199 -0.03378709 0.25334400
-0.09087921 -0.03165604 0.25334400
0.00550997 -0.02449825 0.25334400
0.01873073 -0.02170172 0.25334400
-0.10314565 -0.02008823 0.25334400
-0.00118765 -0.01819776 0.25334400
-0.06398163 -0.01380879 0.25334400
0.08585215 -0.01308088 0.25334400
0.00684786 -0.01290353 0.25334400
-0.08293230 -0.01131737 0.25334400
-0.06622340 -0.01004743 0.25334400
0.05908649 -0.00917637 0.25334400
-0.05403363 -0.00859287 0.25334400
0.06509443 -0.00603950 0.25334400
-0.03842931 -0.00428957 0.25334400
0.09371129 -0.00421394 0.25334400
0.03419345 -0.00371760 0.25334400
-0.03088472 -0.00319351 0.25334400
-0.08860969 -0.00312734 0.25334400
-0.01331764 -0.00059212 0.25334400
0.02087333 -0.00042153 0.25334400
-0.02393653 0.00045129 0.25334400
-0.04611512 0.00283923 0.25334400
0.00662054 0.00735945 0.25334400
0.07550129 0.01137914 0.25334400
-0.08963091 0.01312904 0.25334400
0.09855101 0.01322583 0.25334400
-0.10740685 0.01857471 0.25334400
-0.06205595 0.01905558 0.25334400
0.00497046 0.02174477 0.25334400
-0.03698811 0.02291825 0.25334400
-0.03037443 0.02786017 0.25334400
-0.01756324 0.02886158 0.25334400
-0.03803724 0.02962937 0.25334400
0.05089002 0.03411007 0.25334400
-0.07864928 0.03641901 0.25334400
0.08161448 0.03827337 0.25334400
-0.06102595 0.04291433 0.25334400
-0.01297886 0.05249696 0.25334400
-0.05518930 0.05323522 0.25334400
-0.00970148 0.05766999 0.25334400
0.07037487 0.06253033 0.25334400
-0.02622024 0.06426661 0.25334400
0.07649147 0.06752969 0.25334400
-0.11094186 0.06960440 0.25334400
0.01960869 0.07276776 0.25334400
-0.00011260 0.07312790 0.25334400
0.01736325 0.08021255 0.25334400
0.02397250 0.08056011 0.25334400
0.06381004 0.08067305 0.25334400
-0.09314940 0.08313625 0.25334400
0.05725011 0.08663536 0.25334400
-0.03444733 0.08738872 0.25334400
0.03703699 0.09048457 0.25334400
0.01252618 0.09851848 0.25334400
-0.08616514 0.09955215 0.25334400
-0.06902556 0.09979343 0.25334400
0.09437612 0.10160143 0.25334400
-0.01716843 0.10451397 0.25334400
0.00886044 0.10515251 0.25334400
-0.04591384 0.10866414 0.25334400
0.09340587 0.10870752 0.25334400
0.02965842 0.11179053 0.25334400
0.07125833 0.11317491 0.25334400
0.04836780 0.11818314 0.25334400
0.00720917 0.12072744 0.25334400
-0.07154356 0.12085076 0.25334400
0.01338466 0.12120070 0.25334400
0.08339953 0.12300508 0.25334400
0.03982055 0.12644286 0.25334400
-0.10143394 0.13184088 0.25334400
-0.00714756 0.13711017 0.25334400
-0.09549221 0.13923757 0.25334400
-0.03725571 0.14045237 0.25334400
0.07594804 0.14378370 0.25334400
0.06948536 0.14727250 0.25334400
-0.07856873 0.15135942 0.25334400
-0.00800742 0.15187667 0.25334400
-0.05805520 0.15343890 0.25334400
-0.03243741 0.15638342 0.25334400
0.06270119 0.15715303 0.25334400
-0.11397561 0.15745133 0.25334400
0.06775995 0.15833893 0.25334400
-0.10863121 0.16073588 0.25334400
-0.00001502 0.16489206 0.25334400
0.08585420 0.16508400 0.25334400
0.00272276 0.16722968 0.25334400
0.02098393 0.16974579 0.25334400
0.07975093 0.17022991 0.25334400
-0.04588178 0.17110831 0.25334400
-0.00556961 0.17175730 0.25334400
0.00526954 0.17562266 0.25334400
0.06436553 0.17678344 0.25334400
-0.03944960 0.17767413 0.25334400
0.07899500 0.18238431 0.25334400
-0.04635539 0.18447553 0.25334400
-0.08957664 0.18535408 0.25334400
0.07698416 0.18716139 0.25334400
-0.08682685 0.18757056 0.25334400
-0.00222876 0.19130233 0.25334400
-0.09593298 0.19157518 0.25334400
0.09669970 0.19444716 0.25334400
-0.08325808 0.19469877 0.25334400
-0.09768048 0.19564258 0.25334400
-0.03601059 0.19647694 0.25334400
-0.06264710 0.19660126 0.25334400
-0.01300484 0.20191017 0.25334400
0.04324455 0.20199582 0.25334400
0.08368149 0.20204276 0.25334400
0.02134156 0.21619666 0.25334400
-0.09972680 0.22212616 0.25334400
-0.00404977 0.22306950 0.25334400
-0.05870722 0.22466767 0.25334400
-0.07856084 0.22509877 0.25334400
0.03585046 0.22536545 0.25334400
-0.02245899 0.22537339 0.25334400
-0.08914884 0.22555009 0.25334400
0.01666025 0.22828677 0.25334400
-0.09527529 0.22928843 0.25334400
0.06133861 0.23276173 0.25334400
0.04827712 0.23424299 0.25334400
-0.02559784 0.23458180 0.25334400
0.09434287 0.23885882 0.25334400
0.04782405 0.24005012 0.25334400
0.07489840 0.24034922 0.25334400
-0.09865316 0.24216428 0.25334400
-0.06725667 0.24651697 0.25334400
0.00766591 0.24711736 0.25334400
-0.08561661 0.24989204 0.25334400
0.04365466 0.25510019 0.25334400
-0.11722441 0.25607461 0.25334400
-0.05552661 0.25964129 0.25334400
0.06989927 0.26154667 0.25334400
-0.08408514 0.26239437 0.25334400
-0.11806948 -0.16480806 0.25334799
-0.11884996 -0.10213774 0.25335291
-0.00390644 -0.25848264 0.25335705
0.10212336 0.23351552 0.25335935
0.09094886 -0.25908297 0.25336137
-0.05293522 -0.25963658 0.25336245
-0.09143654 0.26622951 0.25336716
-0.04152049 0.26769471 0.25337765
0.10409977 0.10330123 0.25337917
-0.11804051 0.08765858 0.25339335
-0.12195794 0.15421167 0.25349703
0.20288330 -0.35509878 0.25357613
-0.12173656 0.37908691 0.25357950
0.10381622 -0.03873985 0.25362745
0.10540408 -0.37983012 0.25363073
-0.20288643 0.32414073 0.25375128
0.10872892 -0.03775969 0.25392750
0.13875613 -0.37972480 0.25396216
0.10726651 -0.12614274 0.25404814
-0.20221257 -0.10891841 0.25412142
-0.20219064 -0.21402638 0.25413343
0.10776278 -0.12563533 0.25416386
-0.15109979 -0.37930447 0.25416681
0.10995436 -0.18761452 0.25418139
0.03554197 -0.05019967 0.25418147
0.11572841 -0.00700637 0.25418153
0.16235007 -0.00722410 0.25418159
-0.10646680 0.00627848 0.25418162
0.08657145 -0.14286767 0.25418165
-0.09915498 0.00662285 0.25418171
-0.18999822 0.01970424 0.25418171
-0.07379004 0.10542780 0.25418171
0.13299780 -0.23028655 0.25418174
-0.05718808 0.07153089 0.25418180
0.18910253 -0.09129699 0.25418189
0.18893480 -0.15273461 0.25418195
0.08366678 -0.13274695 0.25418198
0.18600903 -0.29401088 0.25418201
0.17499551 -0.27441078 0.25418201
0.16694567 -0.26640910 0.25418201
0.18412259 -0.26624739 0.25418201
0.16620199 -0.25806451 0.25418201
0.15913166 -0.25684452 0.25418201
0.15483822 -0.24839988 0.25418201
0.13753761 -0.22845958 0.25418201
0.14514513 -0.22080551 0.25418201
0.11314148 -0.18524750 0.25418201
0.12712283 -0.17624728 0.25418201
0.15038337 -0.16716267 0.25418201
0.18796781 -0.15944505 0.25418201
0.11473140 -0.15170889 0.25418201
0.14364608 -0.14932846 0.25418201
0.11146058 -0.14005037 0.25418201
0.18421786 -0.14002876 0.25418201
0.12895446 -0.13115504 0.25418201
0.11948885 -0.12307094 0.25418201
0.12807959 -0.11823636 0.25418201
0.08678365 -0.10917541 0.25418201
0.18080559 -0.10441606 0.25418201
0.07851581 -0.10293265 0.25418201
0.11578409 -0.09473243 0.25418201
0.05948644 -0.08595880 0.25418201
0.18589309 -0.08423383 0.25418201
0.06874303 -0.07611947 0.25418201
0.16134343 -0.07315161 0.25418201
0.15336107 -0.06983057 0.25418201
0.16678993 -0.06918354 0.25418201
0.06529648 -0.06593266 0.25418201
0.18428214 -0.06554359 0.25418201
0.08835664 -0.06387465 0.25418201
0.08999889 -0.05429206 0.25418201
0.14954101 -0.05399768 0.25418201
0.05272705 -0.05032681 0.25418201
0.07956886 -0.04884976 0.25418201
0.11912908 -0.04739660 0.25418201
0.11478497 -0.04653755 0.25418201
0.09799810 -0.04505577 0.25418201
0.17595369 -0.03754228 0.25418201
0.15418224 -0.03104923 0.25418201
0.07265740 -0.02496865 0.25418201
0.03780749 -0.02200876 0.25418201
0.10582193 -0.02110371 0.25418201
0.08029599 -0.01936980 0.25418201
0.04810607 -0.01794141 0.25418201
0.15649599 -0.01656694 0.25418201
0.03406278 -0.01556010 0.25418201
0.12479714 -0.01389481 0.25418201
0.16574644 -0.01339720 0.25418201
0.12763381 -0.01065663 0.25418201
0.05159606 -0.00913409 0.25418201
0.04232311 -0.00909381 0.25418201
-0.09528977 0.00827140 0.25418201
-0.06061542 0.00919207 0.25418201
-0.18603919 0.01041972 0.25418201
-0.04358441 0.01180302 0.25418201
-0.15003234 0.01473927 0.25418201
-0.09442333 0.01747643 0.25418201
-0.11616962 0.01876986 0.25418201
-0.14868847 0.02557860 0.25418201
-0.05595831 0.03189851 0.25418201
-0.12301837 0.03640986 0.25418201
-0.15603885 0.03729710 0.25418201
-0.08981333 0.03995794 0.25418201
-0.14640684 0.04458787 0.25418201
-0.17696792 0.04850204 0.25418201
-0.06625444 0.05021492 0.25418201
-0.08599925 0.05131767 0.25418201
-0.05451019 0.05141275 0.25418201
-0.13588463 0.05600261 0.25418201
-0.11370330 0.05717084 0.25418201
-0.14769365 0.05969038 0.25418201
-0.12009986 0.06257291 0.25418201
-0.14356253 0.06395988 0.25418201
-0.07126833 0.06494444 0.25418201
-0.06107232 0.06633829 0.25418201
-0.11841875 0.06955057 0.25418201
-0.06519306 0.06979609 0.25418201
-0.12484849 0.07062708 0.25418201
-0.16647835 0.08620888 0.25418201
-0.14047068 0.08776458 0.25418201
-0.12824452 0.08853852 0.25418201
-0.12581763 0.08855201 0.25418201
-0.18216547 0.09370228 0.25418201
-0.07732102 0.09697346 0.25418201
-0.14613196 0.10438850 0.25418201
-0.14862478 0.12414386 0.25418201
-0.13493915 0.12806521 0.25418201
-0.12497250 0.13570842 0.25418201
