1365
-0.05224164 -0.03300218 0.04816027
-0.08490461 0.13267522 0.02277011
0.12631132 0.29957560 0.02329399
0.01175609 0.00645827 0.04071009
-0.09006293 -0.13208051 0.02140549
0.10170700 -0.24251562 0.23588096
0.04500594 -0.12261267 0.04222028
-0.06421171 0.26230115 0.03250169
-0.10871693 -0.20082369 0.07213524
0.09008950 0.11665200 0.08560263
-0.06370281 -0.12381703 0.04554754
-0.02250887 0.28050584 0.04004575
0.04833271 0.24862404 0.15727696
-0.01761777 -0.30161694 0.05776094
0.01749909 0.18929952 0.04228899
-0.13250813 0.21907607 0.05618874
-0.16739942 -0.17871624 0.05576047
-0.01168513 -0.18110019 0.05457938
0.12832175 -0.18470261 0.07814717
-0.21648061 0.14662981 0.04718105
-0.17158771 -0.00029395 0.05189712
-0.18597272 0.03686042 0.07573909
-0.03913847 -0.22433195 -0.12695441
0.05150342 0.17835908 0.04570276
-0.07168749 -0.17878930 0.05629189
-0.07561113 -0.24158452 0.03150682
-0.08955994 0.26070476 0.05895920
-0.07686897 -0.33754912 0.05018405
-0.00602733 -0.01220721 0.06615449
-0.19059488 0.01345175 0.05634344
0.25449330 -0.01896822 0.04482603
0.11777866 0.34317020 0.01999770
-0.00751442 0.10324641 -0.10170960
-0.16912435 0.13611454 0.04485151
-0.11428225 0.22795673 -0.03856529
0.16193339 -0.11115146 0.07178865
-0.05610442 0.27917138 0.05761894
-0.06386413 0.15734559 0.03413776
-0.01732564 0.09378873 0.04802877
-0.08235413 0.03283974 0.04680212
0.02482763 -0.20566933 0.06321989
-0.12043139 0.31120193 0.03636794
0.11111640 -0.25539804 0.05038974
-0.12363070 -0.06205434 0.04219207
0.03933692 -0.03417234 -0.05367297
0.19931012 -0.12402539 0.06012275
-0.02397382 -0.21368051 0.08354717
-0.12581995 -0.17563894 0.06098565
-0.16610858 -0.01267404 0.05823454
-0.20663455 -0.34603271 0.06079426
0.13622715 -0.20649943 0.04059590
0.01866399 0.25038859 -0.09261163
-0.04349325 -0.11479703 0.04736680
0.06353849 -0.25372291 0.07940504
-0.05233224 0.06977763 0.04982877
0.06951929 -0.16504255 0.03288190
-0.26550063 0.11433710 0.06581379
-0.28848505 0.14786041 0.05757128
0.15378496 0.27200830 0.01750709
0.22486858 -0.08314385 0.03541261
-0.17667672 -0.24613605 0.04090313
0.05674264 -0.18466666 0.03502098
0.13232318 0.20820659 0.03858417
-0.22782616 -0.24089423 0.03628360
0.00478715 -0.03640759 0.07076667
-0.10538096 -0.19131416 0.05730879
-0.08540765 -0.17242646 0.04987563
-0.14536338 0.27300483 0.03286065
0.07550680 -0.10273463 0.04070115
-0.30770162 -0.11183947 0.05711633
0.06371531 0.17317082 0.04214504
0.01944709 -0.20534211 0.05159150
-0.13971226 0.04624324 0.04693279
-0.00666223 -0.07833870 0.05119371
0.14420183 -0.19558986 0.04855920
0.02118145 -0.11752902 0.07224622
-0.12637469 0.15057299 0.01594746
-0.18848163 0.30733532 0.02856308
0.18793052 0.38993022 0.03694108
0.06167616 -0.17373258 0.04543218
-0.07065043 0.22720550 0.04149675
0.12330683 -0.30185017 0.05273177
-0.12014544 0.01779395 0.18363085
-0.01193093 -0.11742371 0.03285348
-0.13656104 -0.04243380 0.05614648
0.14895010 0.10551152 0.05150156
-0.08136220 0.13716847 0.04872006
0.11191212 0.10904661 0.05185381
0.06638807 0.04512797 0.05669823
-0.10269405 -0.21785080 0.06312143
0.07963015 -0.25427946 0.04433250
-0.02387911 0.10664701 -0.04725144
-0.01642189 0.10920655 0.02923182
-0.28844324 0.04234581 0.04783319
-0.06987216 -0.15168163 0.04752333
-0.26495719 0.15132469 0.07486990
-0.12512901 0.19025505 0.06223971
-0.01552625 0.07264446 -0.08127778
-0.05065546 -0.25465417 0.03977048
-0.09690680 -0.06349202 0.10028185
0.11601383 0.32617131 0.05177694
0.08422416 -0.03196757 0.03863290
-0.19622186 -0.10530334 0.05464809
-0.21162134 0.11875415 0.05232890
-0.09373099 0.16410170 0.07527487
-0.07085365 0.15261507 0.05027930
-0.01715672 -0.10022020 0.03212802
0.10323048 -0.14982730 0.04781720
-0.16403209 -0.24672794 0.02825193
-0.14366946 -0.26861823 0.03975324
0.12186118 -0.23268406 0.05639388
-0.20758224 -0.01350750 0.04402249
0.08845855 -0.24052714 0.06209780
-0.08606870 0.23876531 0.05084059
0.06718089 -0.18400666 0.04426813
-0.00767994 -0.15703908 -0.04536160
-0.03897355 -0.10144857 0.05658831
-0.02008219 -0.21206695 0.04334866
-0.04088544 0.02826127 -0.06582740
-0.04611713 0.14316085 0.06229527
0.14379066 -0.23961484 0.03807732
-0.12335856 0.15999030 0.04723518
0.05338994 -0.14071219 -0.07763284
-0.25288868 0.25894529 0.03363985
-0.23441860 0.26987967 0.03495651
-0.12190898 -0.06499489 0.05365974
-0.14499642 -0.24149494 0.05592622
0.14810775 0.12948884 0.07292683
-0.20705536 0.29206842 0.03944424
-0.09432630 0.09844474 0.06803948
0.16030790 -0.12333663 0.04614198
-0.19153112 -0.08853307 0.05084471
0.17181391 0.31289795 0.04994237
-0.13470200 -0.28786981 0.05418903
-0.13080075 -0.33781222 0.03499624
-0.26431352 -0.00329697 0.03120758
-0.06623452 -0.01767839 0.05087383
-0.19178617 -0.06930035 0.05289973
-0.22907129 0.12238764 0.06750517
0.07721274 0.21383691 0.11760078
0.27639055 0.15988074 0.03788077
0.16280776 -0.21851447 0.06366500
-0.00550682 -0.09391993 -0.04414585
0.11852947 0.21754941 -0.09134044
-0.08185922 0.03045504 0.05259153
-0.03924426 -0.16195679 0.08746184
0.09923713 -0.19912902 0.05445275
-0.03134337 0.20054895 0.07698526
-0.03789782 0.37047771 0.05346248
-0.06710930 -0.15691225 0.08071731
0.08041471 0.15840492 0.05350523
0.00019724 -0.20692144 0.05259773
-0.09255977 0.03607446 0.12489954
-0.16239859 -0.01428735 0.05392413
0.16726926 0.08368395 0.06449594
-0.11456635 -0.09718966 0.04190558
-0.22118625 0.00739692 0.05697010
-0.10329813 -0.17768613 0.06463362
-0.23417109 -0.08725879 0.04986510
0.23525561 0.10586777 0.03682674
-0.01637294 -0.10862760 -0.05438985
-0.20035383 -0.08200076 0.04506948
0.14571698 0.13834725 0.05156526
-0.26016256 0.06480290 0.03383757
-0.20678298 -0.16711816 0.05065075
0.00942650 0.18031247 0.13086341
-0.04779691 0.19517595 -0.11809756
0.13375191 -0.09276661 0.04549634
0.19729355 -0.08643185 0.05405286
0.01350834 0.02556384 0.05357327
0.10913642 -0.00796842 0.03652936
0.09378327 -0.06858332 0.05214235
0.14788461 0.07895380 0.03287603
-0.09276139 -0.17183018 0.05209534
-0.13971165 0.03310465 0.04325208
0.06342340 -0.12652378 0.04392795
-0.19189179 0.16980319 0.04531890
-0.27468732 -0.05022135 0.05613801
0.02734020 0.09482683 0.07221802
-0.29215544 -0.15124927 0.01599330
0.22992638 0.23684236 0.07197683
0.00258526 0.35379183 0.06600983
0.12870139 0.24298210 0.07621670
0.02362185 -0.18825155 -0.09984862
0.00321714 -0.00309607 0.02641854
-0.21156499 -0.04811823 0.04328962
0.05571398 0.28425795 0.03281188
0.06783777 -0.02728467 0.05358689
-0.00494736 -0.12657131 0.01872247
-0.23217006 0.00593445 0.03929555
0.11981925 -0.28461513 0.04489021
-0.09495120 0.19325867 0.06589832
0.00340905 -0.04569773 -0.06009027
-0.00651824 -0.25995532 0.05467624
0.00589975 -0.20185074 -0.09427640
-0.16203889 0.22365156 0.04411046
0.00408141 -0.24211520 0.06847315
0.07076333 -0.07651395 0.03495458
0.11216088 0.29682335 0.04716736
-0.16610938 0.22447047 0.04453243
0.09296887 -0.22050306 0.04650241
0.05104034 0.07107504 0.03362401
-0.14900087 -0.35692328 0.03761464
0.04075660 0.20350389 0.04039428
-0.15362340 0.10588907 0.06042655
0.08671429 -0.19484323 0.04092743
0.07552215 0.17953560 0.04836282
0.02245370 0.18283413 0.05708555
-0.27269131 -0.10142256 0.06499247
-0.11225679 -0.22745296 0.14001143
-0.26389012 0.03042708 0.08526132
-0.15678088 0.23359987 0.05154242
0.10956967 0.00617433 0.03829007
-0.11763604 0.35724276 0.03743857
-0.15941186 -0.04625259 0.05456772
0.05427623 0.27846816 0.04178675
0.16539675 0.18855704 0.05950706
-0.23350145 0.25857949 0.05401051
0.16374087 -0.24464887 0.06207988
-0.19251242 -0.12999111 0.05829252
-0.09908706 -0.12001894 0.06664571
0.05020179 0.16415569 0.13754201
-0.03844684 0.09247127 0.04063642
-0.02480848 0.01193917 0.04966144
0.04313849 -0.02362849 -0.02841654
0.11412693 -0.28964740 0.06408126
-0.06543399 -0.21582626 0.12352780
0.09651679 -0.34555188 0.05033514
0.00069590 -0.19143938 0.12326404
0.16964148 0.30162999 0.00880608
-0.12803452 -0.10465056 0.04977081
0.03188178 -0.22340420 0.03385767
-0.04785464 0.39932424 0.04693872
0.04908860 0.27441344 0.12556988
0.20889035 -0.28620112 0.03111513
0.05148514 0.30296749 0.06190774
0.18694285 0.27871767 -0.12016831
-0.05019256 0.21516633 0.09529526
-0.16739106 -0.04283962 0.04300417
-0.13565862 -0.01189201 0.06041088
0.05194277 0.18642078 0.14411195
0.14979482 0.37553069 0.08683060
-0.03201249 -0.17386812 0.12050568
-0.21511135 0.30219868 0.02488244
-0.14681776 -0.22833174 -0.05358204
-0.19662499 0.35147426 0.04219489
0.07912382 0.08742430 0.05573343
-0.01900708 0.34988737 0.06769388
-0.09758789 -0.00275409 0.05287897
0.07818057 -0.12352436 0.05865397
0.14619426 -0.16156867 -0.04406141
0.14235026 -0.20307668 -0.11055006
-0.07862017 -0.37168211 0.05263405
0.08876051 -0.16343038 0.05333101
-0.09595306 -0.10843191 0.03986569
-0.18411064 0.16687952 0.04332803
0.08847646 -0.01533860 0.05231504
-0.12717585 -0.30743068 0.07607891
-0.10365102 -0.23013394 0.10532705
0.12050874 -0.18405735 0.05859382
-0.02340186 -0.15707810 0.13747546
0.12891415 0.30903625 0.03353517
0.04282539 0.23945916 0.04296990
0.14277515 0.28768209 0.04485939
-0.01753559 0.33183685 0.04907161
-0.06916770 0.16078897 0.04953721
-0.12935087 -0.28991449 0.04736532
-0.01637956 -0.20996138 0.05386384
-0.02672713 0.02819440 0.04654001
0.19769257 0.21021493 0.04555447
-0.12706792 -0.14472476 0.05230206
-0.28249907 -0.17846116 0.01648797
-0.13415110 -0.20833564 0.04475896
-0.28794241 0.01962042 0.05592436
-0.01354165 -0.06617193 -0.02240358
0.00341592 -0.01416387 0.05628013
-0.17295551 0.07524096 0.04885703
0.14671072 0.19226313 0.02595890
-0.17108442 -0.05197655 0.05750210
0.01575166 0.22122845 0.03483993
-0.09818370 -0.28403896 0.02739672
0.08013196 0.27181876 0.04424532
0.12218191 -0.14278169 0.04457450
0.03663406 0.03432883 0.07111599
-0.13305955 0.03062760 0.03568397
-0.13208337 -0.07874669 0.03396122
-0.08058745 -0.01023768 0.05108334
0.13731641 -0.09879912 0.14997637
-0.09512000 -0.24387261 0.03554289
-0.04853468 -0.15929991 0.13735546
-0.06243039 0.18007740 0.05028723
-0.14448705 0.04432070 0.06773158
0.21863689 0.27294046 0.02177858
-0.20750375 -0.12845179 0.05369784
0.10530482 0.32011360 0.05598627
-0.27843121 0.06200825 0.06109826
-0.06932378 0.30896631 0.02872264
0.04597450 -0.19847912 0.03888117
0.06931859 -0.24080253 0.06268794
0.01593864 0.14151961 0.03591785
0.15188505 -0.23833391 0.05458693
-0.07003687 -0.21623415 0.08087651
0.12231846 0.35372370 0.06446257
-0.29976797 -0.07645907 0.06308635
0.17097627 -0.23441078 0.04062413
-0.02076452 0.25815234 0.04297382
-0.15389922 0.08026101 0.06356838
-0.11148202 0.03285662 0.05576707
-0.04849410 -0.22123721 -0.11433277
-0.09413797 0.18277921 0.04328750
-0.02724271 0.21541360 0.07343308
0.12078799 -0.11578038 0.03573488
0.04568742 -0.01588577 0.06350686
-0.13820709 0.05845249 0.05677626
-0.25082803 0.06648275 0.04908210
-0.02580016 -0.21852534 0.04619296
-0.09497854 0.20015378 0.08767014
-0.14008638 0.26234946 0.03839949
-0.06700201 0.18427485 0.06125678
-0.11706311 0.20539394 -0.00464399
-0.05461506 -0.18985166 0.05404646
0.29491353 -0.00100112 0.05843800
0.05089618 0.21461517 0.02674668
-0.11591290 -0.04574518 0.03930226
-0.07058433 -0.26068681 -0.03273129
0.03339398 -0.23763257 0.05067205
-0.07555863 0.27220243 0.04778558
-0.21344116 0.27768993 0.04960705
-0.15781021 -0.36476213 0.04857177
0.13460462 0.08088000 0.05072322
0.13083327 0.08519840 0.04829179
-0.16789576 0.06047422 0.05142087
0.03096049 -0.02637250 0.05486339
0.14133894 0.14521188 0.04102933
0.07994048 -0.12513293 0.00231740
0.00304370 -0.34987310 0.04550368
-0.19225891 0.08147787 0.04584570
-0.16678368 -0.23030424 0.06513223
-0.25533721 -0.01231493 0.06073555
0.15745249 0.18770851 0.04639672
-0.06945681 0.02252035 0.03529425
-0.08545427 0.02335650 0.29329056
-0.10077993 0.25460875 0.04765563
-0.04763533 -0.20898578 0.06811601
0.06606612 -0.09874503 0.08634035
-0.06757296 -0.20679383 0.05729642
-0.12905948 0.21279818 0.04059869
0.11031639 -0.20501140 0.02285409
-0.09440935 -0.01703822 0.15321338
-0.08071476 0.18298116 0.03769509
0.13003102 0.09627844 0.22582942
0.04431549 -0.25681296 0.04904854
0.10806336 0.00515364 0.04905935
-0.06978782 -0.11326016 0.03428617
0.06289112 -0.06142697 0.04558727
0.09567332 0.32077968 0.04395448
0.21260911 -0.24461168 0.03713357
0.19838697 -0.11866964 0.04559734
-0.13074142 -0.08272250 0.04844392
-0.05970699 -0.04763760 0.06280185
-0.09823532 0.34343377 0.04588649
-0.15437768 0.15706268 0.04011874
0.05144787 0.09887858 0.06195443
-0.04126951 -0.21452513 0.04261572
0.02240191 0.14918652 0.07814712
0.03304370 -0.09894218 0.05382145
0.12448056 0.13614558 0.03497185
-0.11118951 0.27369258 0.04614610
0.22193930 -0.14277282 0.05734004
0.11950294 0.11395727 0.04636249
-0.08067775 0.27020743 0.03151780
0.02842768 0.00248585 0.04816230
-0.10635033 -0.10072055 0.06222203
0.04705254 -0.35541236 0.07037655
0.05471411 0.34861028 0.01507731
-0.06643495 -0.10961151 -0.07747747
-0.11268851 0.14321743 0.04561238
0.04407778 -0.14585254 0.04593553
0.08515058 -0.26144725 -0.05443426
0.08904174 -0.40571618 0.02424395
-0.16533649 -0.27547181 0.04313710
0.15699401 -0.02787822 0.05389167
-0.12216434 0.34731519 0.04778646
0.12874487 -0.19412920 0.05217151
0.07269882 0.02560969 0.05234512
-0.16314653 -0.00989803 0.05866317
0.00521865 0.38476992 0.10723919
0.06609643 -0.04135856 0.04745463
-0.17061642 0.16203061 0.01687455
-0.11627738 -0.32175517 0.08585221
0.00611047 -0.32274520 0.06320840
0.07899752 0.05847217 0.05723338
0.01549926 -0.19934990 -0.00498772
-0.05432610 0.23781933 0.04522890
0.09062662 0.28846377 0.05051765
-0.19530323 0.28797433 0.01849385
-0.21531177 -0.09336644 0.08693469
-0.02892925 -0.14076261 -0.09146489
-0.22106968 0.06900997 0.06511922
-0.12628710 -0.31153250 0.02169160
0.09725193 0.19161214 0.04152285
-0.06122633 -0.23065484 0.07169272
0.17833453 0.14676854 0.02265015
0.14722368 -0.08315139 0.02911150
-0.27270833 0.11864278 0.04571445
-0.06227721 0.11318450 0.08235881
0.00670369 -0.30025798 0.01368360
-0.11256260 0.21811956 -0.11408484
-0.13344894 -0.10070343 0.04888675
-0.09016375 0.01868974 0.05348282
0.12051168 -0.33088523 0.03375785
-0.06299652 -0.16364279 -0.06320100
0.25920478 0.10092781 0.09402975
-0.25102058 -0.12878083 0.05889204
0.10005401 0.31730166 0.05258016
0.01878906 0.25821128 0.04259251
-0.06888335 -0.23826775 0.02079535
-0.12529096 -0.26791063 0.04809368
-0.01030062 0.27032131 0.05237883
0.04377139 0.22869396 0.11608419
-0.00817653 0.19633231 0.02412164
-0.11013487 -0.12104767 0.18632162
-0.06599151 -0.01967753 0.05695861
-0.14341536 -0.08360730 0.05846956
0.00323813 -0.15406075 0.04849310
0.12458706 -0.17242785 0.07884034
0.21647753 0.02822547 0.09019367
-0.15512416 0.19390616 0.12451509
0.00464089 -0.04316894 0.04317084
-0.11841591 -0.28384805 0.05553270
0.01625875 0.31352994 0.04169588
0.20003849 0.15025741 0.05198476
-0.05277736 0.22184266 0.06573246
0.13290673 -0.04636426 0.05305478
0.11701741 -0.00303316 0.04915065
-0.10335336 -0.01793813 0.07961721
-0.20943601 0.08185282 0.05159576
0.00945255 0.32197481 0.05440908
-0.10347830 -0.00466027 0.04994367
-0.13424873 0.28501949 0.02320430
0.07999960 0.18052426 0.06331313
0.03100431 -0.23294099 0.05096927
-0.19525768 0.05366619 0.06009548
0.03967009 -0.34645995 0.04919617
-0.25046292 -0.14514461 0.04181044
-0.04939045 0.28404117 0.06378385
-0.05910470 -0.29259312 0.03828432
0.02268227 -0.30736259 0.05312771
-0.14052360 -0.23827289 0.05689570
0.17425516 0.13082388 0.04602554
0.04534039 0.10133876 0.02198231
-0.02279260 -0.18335688 0.04908068
-0.19288656 -0.08491601 0.05187506
0.08155660 0.18091528 0.07788853
0.11235626 0.13364765 -0.07752892
-0.22322446 0.03358771 0.04581985
0.17930821 0.16764006 0.03815371
0.24759050 0.24564874 0.05378986
-0.20439741 -0.20404348 0.04737838
-0.08920713 -0.24837375 0.11020760
-0.20428681 -0.20358354 0.05239186
0.02399565 -0.23174819 0.05510464
0.11059508 0.26587105 0.03606252
0.16570991 0.23363933 0.05372740
-0.03444079 -0.12694171 0.04767799
-0.15352471 0.08449589 0.04900094
0.07540953 0.23162210 0.07144210
0.04837617 -0.23462854 0.05084751
0.09982780 -0.21140882 0.06260620
0.01426228 0.30533215 0.06707151
0.07715224 -0.10480345 0.05360438
-0.07853480 0.10704631 0.02946283
-0.20793435 0.22361442 0.03952917
-0.06212177 0.18912487 0.01926148
-0.21686718 -0.03104649 0.05758472
-0.20464772 -0.10656069 0.04757680
-0.06606879 -0.22070101 0.04203992
0.10458034 -0.20347914 0.04196393
-0.03762879 -0.05752426 0.04013488
0.03192101 -0.08634026 0.04203942
0.11012342 0.27828762 0.03117108
-0.20869316 0.38896880 0.04995521
-0.22078288 -0.05749338 0.04042329
-0.09350266 0.31136680 0.04635838
-0.08862777 0.28361043 0.05904188
-0.15223207 -0.35440233 0.05787902
-0.01516356 0.08382731 0.05000743
-0.16935866 0.28437033 0.04432401
0.10583825 -0.25319320 0.03813477
-0.28857675 -0.10783760 0.05109458
0.19146441 0.19734333 0.07160419
0.13796870 -0.15111811 0.06071275
-0.18914551 -0.20333387 0.01606381
-0.22205266 0.14228117 0.05730066
0.20644000 0.24148518 0.03711899
0.08347604 0.33039331 0.04768904
0.07989112 0.14816380 0.04506825
-0.14487927 -0.29815176 0.05723882
0.07449120 -0.13052693 0.04266725
0.09091002 0.14252549 0.04431514
0.19404700 0.24079056 0.05306157
0.30242962 -0.04776093 0.05599625
-0.31974199 -0.00325069 0.05063036
-0.19112909 0.05768185 0.05152111
0.03324470 -0.15271482 0.04823180
0.02488988 0.13802302 0.04968799
-0.18662193 0.19390804 0.03606896
-0.08569697 -0.27255213 0.06018686
-0.20901009 0.28013289 0.05256028
0.07963165 -0.07099573 0.04243238
-0.16817755 0.18629971 0.04093383
-0.12648620 -0.11657380 0.03762569
-0.06791170 0.08047819 -0.00932401
0.22207190 0.04228093 0.03175895
-0.05904297 -0.32679704 0.05892329
0.09961680 0.06964495 0.05441614
0.14753969 0.09296028 0.04884256
0.00995716 -0.28947890 0.03221129
0.03777738 0.27252835 0.05278207
0.13536999 -0.31251833 0.12225108
-0.22550076 0.20972711 0.07358312
-0.21110103 -0.03113889 0.01463041
-0.03987803 0.07598768 -0.01103218
-0.15356433 0.00400192 0.04532972
-0.06756765 -0.25924397 0.05894662
0.23395008 0.05024533 0.04137266
0.02534124 0.32568663 0.03798409
-0.04910558 -0.08340185 -0.09517137
0.02503857 0.20363271 0.05295633
0.15372165 -0.10145472 0.03591807
-0.03071494 0.14200637 0.02987310
-0.00029722 0.06145929 -0.10400418
-0.25654435 -0.27367571 0.05085707
-0.11932850 0.14665312 0.05218376
-0.10744113 0.09064447 0.03836100
-0.17599230 0.15108664 0.05014066
0.05285278 0.29269281 -0.03398748
0.14346693 0.12614059 0.04476210
-0.09586961 0.16376999 0.04173006
-0.05419941 0.25830048 0.03542142
-0.08530048 -0.19860628 0.04518150
-0.15268107 0.02795767 0.05147718
0.23302460 -0.22280951 0.05339400
0.08938033 -0.34050965 -0.00502081
-0.06307314 -0.18229136 0.04018985
0.00268498 -0.30753037 0.01143618
0.08176507 -0.18798426 0.06584974
-0.14300944 0.26129359 -0.02872588
-0.12887982 0.14744276 0.03980326
0.10729794 0.27074933 0.03774287
-0.18031992 -0.06384289 0.04374494
-0.15458998 -0.34983641 0.00984390
-0.21609926 -0.07791929 0.06315610
0.08971871 -0.19142616 0.06458489
-0.02916951 -0.19654480 0.05017366
-0.26839784 0.01138492 0.04845557
-0.03850336 -0.32360277 0.07091632
-0.02621272 0.00782273 0.05017950
-0.27158007 -0.16880734 0.05181348
-0.07513890 0.08751784 0.03695665
-0.17892078 0.17891878 0.04283434
-0.17478201 0.16023001 0.05810265
-0.12403416 0.24645595 0.04386316
-0.12651496 0.16733064 0.03781207
0.02357922 -0.33704290 0.05743098
-0.02938326 -0.11623627 0.03846803
0.24104543 -0.15088935 0.02814841
0.03169549 0.27527875 0.03379304
-0.01230577 0.11922107 0.07299370
-0.16867888 0.19151133 0.15919513
-0.02678256 0.04754829 0.05293993
-0.03153828 0.17597528 0.04329850
0.04444625 -0.15737727 0.05170518
-0.01552817 -0.13729343 0.01112110
-0.05078357 -0.20341867 0.04627229
-0.19287068 -0.24764460 0.03620479
-0.15795308 -0.21587089 0.04734590
-0.12090646 0.08983448 0.06248002
-0.23769303 -0.10430665 0.03460350
-0.02767916 0.10193466 0.05675072
0.10263659 -0.12833762 0.05531140
-0.18752894 0.21567978 0.04825299
0.03432713 0.19537096 0.07676902
-0.24957564 0.18394700 0.02500430
0.00394355 -0.20364070 0.07790571
0.27629706 -0.03726683 0.06042506
-0.19084254 0.08999336 0.04611352
-0.01184532 0.08846371 0.03536324
0.01379148 -0.20975859 0.11473148
-0.10079294 0.16086142 0.11214943
-0.11334647 0.21293780 0.04920289
-0.00581503 -0.19275035 0.06588066
0.03735426 0.07649953 0.05878671
0.13073760 0.21284413 0.03730051
0.01423214 0.10300775 0.06615004
-0.04494207 -0.00101776 -0.02836769
-0.04710471 0.12109677 0.16327167
-0.05542554 -0.21766278 0.03757787
0.16576350 0.24434504 0.07660812
-0.03326984 0.12240111 -0.10495178
0.14744198 0.30971354 0.04324253
0.00642432 0.06608185 0.06475312
-0.24128541 0.06320175 0.05453680
-0.05815414 0.07618132 0.05426935
-0.31469321 -0.16836166 0.05124167
-0.02895196 0.09575713 0.07796240
0.06671041 0.38357472 0.04611636
0.08336388 0.28146532 -0.03611979
0.04928515 0.30139861 0.04664581
-0.16531953 0.09953018 0.03471604
0.19021031 0.29784480 0.03516148
-0.08980842 0.36627492 0.05624308
-0.00558743 -0.19330242 -0.15195352
0.08565672 0.25490266 0.04210186
0.13687138 -0.31325263 0.04436852
-0.04289378 -0.01679344 0.03674844
-0.18564928 -0.05795933 0.05027001
0.02921118 -0.11722326 0.04710384
-0.17770538 0.20828128 0.04665165
-0.02625063 -0.07742976 0.04830284
0.08026461 -0.20730250 0.05606718
-0.04843120 0.31603932 0.09163384
-0.22312045 -0.17610052 0.04748914
-0.16846161 -0.03360288 0.05526024
-0.11345822 0.07381342 0.05188338
0.19490328 -0.23865224 0.05148746
-0.18122412 0.07077710 0.03547451
-0.24624422 0.29331917 0.05709815
-0.20738100 0.20388293 0.08984833
-0.19966970 0.20697668 0.05256058
0.01225440 -0.34013259 0.05200969
0.16976823 -0.17996544 0.04702932
-0.01496191 0.09309091 0.05250913
0.16728409 0.10041672 0.05548500
-0.16901597 -0.01626226 0.04838207
-0.09950645 0.19783601 0.04960717
-0.08813489 0.34489030 0.04417296
-0.23713139 0.26329502 0.03588489
0.23336074 0.09183035 0.03421674
0.08006296 -0.31532258 0.04203951
-0.05304421 0.18070951 0.05267207
0.01327238 -0.14040901 0.05430394
0.02805152 -0.28603697 0.06010458
0.11411293 0.29914412 0.05135305
-0.12583572 -0.06535354 0.05109094
0.00672175 0.27044058 0.21899098
0.08742245 0.12074488 0.05396918
-0.03660377 0.22538993 0.05155607
0.16758797 -0.06187976 0.04590010
0.13403514 -0.23236310 -0.11090878
-0.08306915 -0.04351735 0.03366300
-0.17647937 0.28785658 0.24662390
-0.10955565 -0.31490058 0.05540542
0.18104152 -0.28104368 0.01871854
-0.04888542 0.01032251 -0.05297366
0.27118087 -0.07829116 0.05253098
-0.07446140 -0.19261512 0.14420962
-0.08053938 0.07077795 0.04331529
-0.14156634 -0.16613805 0.05345336
-0.08788035 0.09052797 0.04453665
-0.18723406 0.21975040 -0.12565961
0.02791360 0.31289452 0.05284754
-0.09244272 -0.14138903 0.05067115
-0.16859791 0.14374223 0.14146046
0.22662058 0.17115039 0.05239345
-0.07130097 0.13596311 0.05410863
-0.10996467 0.20114347 0.07053449
0.05183195 0.19896629 0.04887249
0.14551061 -0.16232555 0.05741084
-0.19762471 0.17864451 0.05010872
-0.07644984 -0.29361692 0.03893235
0.05311310 0.19523412 0.03024724
0.03669604 0.36285669 0.02469082
-0.23622714 -0.06985391 0.07940571
0.06396490 0.05731929 0.04491112
0.12787612 0.31932461 0.05681825
0.03755175 0.17725532 0.04668978
-0.09441097 0.21430701 0.07401586
-0.05323292 -0.14025879 -0.05041289
0.13564712 -0.05857284 0.03535287
-0.15218623 0.01914784 0.02239019
0.02627096 -0.22725484 0.07582231
-0.07877594 -0.15976484 0.05829334
0.11222003 -0.10470532 0.04918641
-0.17546104 -0.19659719 0.06851836
0.16473109 -0.13436688 0.06055058
0.17414629 0.07956619 0.05377615
0.07032026 -0.01155151 0.06029157
-0.23446023 0.03005259 0.01936986
-0.10534340 0.09665444 0.05395637
0.07153690 -0.17283911 0.04174885
0.10191792 -0.12839495 0.03528288
-0.24965133 0.02978823 0.05134425
-0.11520594 0.04680759 0.05095568
0.08828745 -0.31157181 0.04563439
-0.02890077 0.29658216 0.04254133
0.13082691 0.24019855 0.04097366
0.02033924 0.11888910 -0.11794265
-0.00056443 -0.19266315 0.10085297
0.03497253 0.07032898 0.18248282
0.11154785 0.15799554 0.05581319
-0.20500997 -0.32531142 0.05265369
-0.16418964 0.26188436 0.02918553
0.02119277 0.16753782 0.04399092
-0.18539685 -0.25508991 -0.05354127
0.11769015 -0.12949845 0.05243994
0.16518658 -0.24568820 0.01208520
-0.18875313 -0.30356547 0.05815057
0.02011937 0.32692483 0.03386120
0.05743301 0.29963660 0.06105532
-0.09131452 0.27109814 0.04970595
0.14843762 0.26663929 0.05429253
-0.03895272 -0.02157349 0.04983027
-0.07025024 -0.03869512 0.04606250
-0.03812787 0.07528993 0.07428698
0.05352060 0.06738703 -0.07248136
0.05757439 0.22313745 0.11555314
0.19554079 -0.06606544 0.06415883
0.10289809 0.20741248 0.05344839
-0.07308775 -0.20851478 0.13508204
0.11053577 0.25839734 0.03889804
0.19373637 -0.19968230 0.03989908
-0.02113557 -0.36240569 0.05161637
0.02240700 0.22376250 0.04022741
0.02980092 0.18944877 0.03619887
-0.05217612 0.00776709 0.04948130
0.00921873 0.23912375 0.05449214
0.16857722 -0.09842229 0.04145251
-0.21745156 0.19613983 0.05148855
-0.07697150 0.18450809 0.03196668
-0.05338723 -0.27689648 0.05398406
-0.20901398 0.09413618 0.02914289
-0.07414392 0.31412515 0.07577257
0.06218874 0.28334856 -0.10212357
-0.00320670 0.00349596 -0.09472349
0.01791235 -0.20985182 0.04916105
-0.14760023 -0.01351188 0.03467238
0.12443553 0.13965452 0.04679596
-0.05538495 -0.18476199 0.05003417
0.00420986 0.09676746 0.05588494
-0.15392283 0.21797846 0.05037560
0.00011323 -0.06437520 0.04768120
0.20263138 0.27853727 0.04455569
0.08107122 0.18564272 0.05543438
-0.25749183 -0.21200693 0.03955765
-0.20379165 0.19825819 0.04246193
0.10515935 -0.28957322 0.04238227
0.08256970 0.33973527 0.01809035
-0.16102496 -0.08813314 0.06089165
-0.06392711 0.01257181 -0.04632047
0.09466279 0.25864938 0.04615188
-0.28733534 0.21115300 0.06257170
0.04061399 -0.22130665 0.04300717
-0.31713194 0.07114971 0.05479446
-0.17742243 0.32189906 0.05842685
0.05861412 0.17893758 0.04523998
-0.09194553 0.05515483 0.03826000
-0.22737496 0.00383918 0.06309557
0.09043918 -0.01956341 -0.05905616
0.09637239 0.04528807 0.04453209
0.14079732 0.14231475 0.04306394
-0.05058578 -0.35262647 0.06109373
-0.24061191 0.14642470 0.03822658
-0.02939852 -0.01644632 0.04363498
0.14907321 0.18434358 0.25939044
-0.05797802 -0.15457679 0.04825550
-0.05928953 -0.26923019 0.05139625
0.02444372 0.17628482 0.02495714
0.07241935 0.14650041 -0.06765471
-0.28522912 -0.14679390 0.06766904
-0.24927351 0.14336941 0.02628064
0.10315631 -0.36747658 0.01338877
0.12104435 -0.27736193 0.04623125
-0.15824448 -0.00212732 0.03975709
0.03761733 -0.15026917 0.05890692
0.13661888 -0.23675346 0.05652244
-0.13178894 -0.03782000 0.04848970
-0.08139341 -0.13654727 0.05772802
-0.00149003 0.11069247 0.04113618
-0.11722428 0.15252253 0.04426561
-0.02630733 -0.01009000 0.27579218
-0.14976092 -0.26246667 -0.01425318
0.27521530 0.06857896 0.04970410
0.06832621 -0.05022290 0.03174803
-0.02704809 -0.26016796 0.01615129
0.03419492 0.08690026 0.04896857
-0.08022721 0.16783431 0.03807680
-0.23161659 -0.13384475 0.06929628
-0.12455656 -0.18011546 0.03315367
0.02352763 0.32017872 0.05074162
0.10822632 0.00429156 0.05350136
-0.19912933 -0.19325006 0.04829542
-0.14655907 0.04238039 0.05627835
-0.25842094 0.35864478 0.03445561
0.03077020 0.12445327 0.04566950
-0.09364578 -0.23690477 0.05703692
-0.03066051 0.28136402 0.04998831
0.23165488 -0.14663154 0.04389721
-0.13980934 -0.04038145 0.05515500
-0.08528951 0.16493696 0.04346828
-0.13682567 0.12864967 0.04673065
-0.14839539 -0.25987425 0.10171272
-0.09545501 -0.10593736 0.05285683
0.15840662 0.12177681 0.01733959
0.09128900 -0.07028861 0.04655419
-0.01085834 -0.14344458 0.03483695
-0.08067122 0.16363993 -0.09640630
-0.05622196 -0.18164814 0.04452378
-0.11563886 0.26754811 0.05467328
-0.05588506 0.14957854 0.05778008
0.02374703 -0.22592686 0.05429573
-0.01224685 0.16154101 0.05969752
-0.22012776 0.17018872 0.03743932
0.04270019 0.07312921 0.05924124
-0.02595543 0.07889332 0.04535172
-0.19066507 -0.23004419 0.04494629
0.10373229 0.16570345 -0.08795917
0.08253767 0.38025057 0.09550998
0.09365075 -0.11736397 0.04057178
-0.13857040 -0.10055266 0.05045220
0.01564098 0.17992677 0.05471116
-0.25248745 0.02286442 0.05154508
0.01272882 -0.12644506 0.05309332
-0.21359530 0.21202889 0.03508848
-0.14172600 -0.22015016 0.05107765
0.03759918 0.23219448 0.03162393
-0.08002433 0.17000243 0.04428427
0.13203146 -0.16229995 0.04812991
-0.09086703 -0.24433854 -0.13873938
-0.00238654 -0.02529289 0.04847046
0.20693260 0.20882432 0.04134503
-0.10298485 -0.25609636 0.04866473
-0.00079882 -0.09792739 -0.05589968
0.19478670 0.14921597 0.05732691
-0.06417862 -0.14767812 0.04034071
-0.03366134 0.03209808 0.10713515
-0.05414669 0.18303195 0.11831556
-0.04166379 -0.27121106 0.01878136
0.06876215 0.30702662 -0.00734162
0.13093540 0.21097475 0.01270103
-0.00508911 -0.00111681 0.03887455
-0.02986133 0.11080228 0.04291017
-0.01872149 0.01127286 -0.10231948
-0.05678112 -0.10311602 0.04448080
-0.02477543 -0.02524303 0.01734619
-0.07363284 -0.21040353 0.05243403
0.15298077 0.25931710 0.05835308
-0.00275517 0.21177728 0.09143342
0.18894608 0.07460460 0.03064069
-0.03103101 0.21782759 0.06008052
-0.05545054 0.07346286 0.08167235
0.20887482 0.25461811 0.25834721
-0.14722680 0.07266089 0.06226604
0.00023227 0.16907404 0.03588690
-0.29978949 0.23343775 0.06674037
0.16127646 -0.01203445 0.03820133
0.03351862 0.40168479 0.04820427
-0.16880208 -0.10925202 0.04718067
0.15004532 0.20265442 -0.07130358
0.21632369 -0.04115772 0.04720976
-0.07777232 0.13341394 0.03007895
-0.22248031 -0.10644447 0.05505903
0.00770459 -0.14138746 0.05468291
0.13955550 0.15949734 0.05522168
-0.08414774 0.25085360 0.06121866
0.05015051 -0.18898088 0.05312598
0.10516609 0.04850578 0.04473348
0.05071864 -0.24350792 0.04273774
0.06899869 -0.19886559 0.08052637
-0.25367746 0.17607534 0.09396585
-0.05463067 0.34599131 0.04445899
-0.02927615 -0.27040312 -0.09150253
0.03294956 -0.13893519 0.04503436
0.00727736 -0.38065988 0.04133005
0.01224856 -0.21325894 0.09036738
-0.06020489 -0.19230968 0.05182991
0.14645612 -0.20715714 0.05039486
0.13887416 0.26966602 -0.04650129
0.05746442 -0.27210778 -0.13956693
-0.18925932 0.11569339 0.19096671
-0.07919865 -0.38517115 0.04203287
0.16863869 0.03577195 0.05689174
0.20818898 0.33198008 0.06370577
0.04015092 0.04001117 0.06576419
-0.03566236 -0.10349201 0.06531175
-0.13417183 -0.19961473 0.04251209
0.24497436 -0.23911369 0.04457752
0.03729466 0.30881387 0.09170834
-0.06875250 -0.12473223 0.04755436
-0.04216562 -0.29046252 0.07683814
0.10658531 -0.02476820 0.18333408
0.00810788 -0.14069146 0.04333146
-0.10543355 0.19473350 0.05549274
-0.26044771 -0.14666951 0.05019705
0.17296211 -0.27583924 0.03149744
-0.18618003 -0.18204021 0.03461249
0.03801300 0.06793956 -0.07419835
-0.07515629 0.16610469 0.05200589
0.02776770 -0.14024682 -0.00939943
-0.06648256 -0.15791358 -0.07513590
-0.11254782 0.11524323 0.02753647
-0.21105742 -0.03858695 0.05273502
0.11449707 0.01948974 -0.01648426
-0.14450069 0.20072031 0.09306313
-0.13331059 -0.27865809 0.04523616
-0.00422029 0.17047071 0.03841438
0.21592677 0.23681606 0.05626516
-0.25221354 -0.00921270 0.08445297
0.07251172 0.15946667 0.04601169
-0.00399569 -0.31799430 0.06310855
-0.08128584 -0.22071117 0.03702363
-0.19627254 0.12660076 0.03984292
-0.11657749 0.21984619 0.03029181
-0.18377051 -0.13017485 0.05161378
-0.09340374 0.19176240 0.08554205
0.07142418 -0.12376692 0.03616506
-0.14730000 0.09200034 0.04207890
-0.27499151 -0.01716756 0.13903731
-0.25263584 0.01464791 0.04449198
0.13876925 0.42817032 0.03819232
-0.09843859 -0.09763780 0.04351063
0.08672164 0.21981940 0.03671601
0.05456628 0.14707941 0.06543840
0.01682986 -0.08908392 0.05175906
-0.13628025 0.26905560 -0.10225795
-0.03749956 -0.10215844 -0.06831546
-0.12716964 0.18544629 0.03790033
-0.12404330 0.28692713 0.04669742
0.15025315 -0.10813406 0.05635953
0.16848347 -0.19596866 0.06429577
0.15122622 0.11649022 0.04066375
-0.18082705 0.16263796 0.05677761
-0.19167726 0.39761335 0.05576698
-0.14529663 -0.13657154 0.04211983
0.14493728 -0.10689914 0.04923961
-0.13126096 0.30723423 0.05034850
0.20027754 0.05837120 0.02856010
-0.02923074 -0.11059850 0.04345652
-0.20599656 0.08514507 0.04024278
-0.17022519 0.01706705 0.06393039
0.18222150 -0.29107091 0.21355531
-0.25290045 -0.20712994 0.02150017
-0.12161726 0.24940376 0.04812732
0.06791328 0.13064480 0.04452316
-0.22985476 -0.13765469 0.05113927
-0.23101765 0.33942786 0.04440770
-0.18504837 0.26804018 0.06022372
-0.18944982 -0.09152711 0.05203642
-0.25219110 0.28210533 0.02533615
0.15263011 0.19996083 0.03549388
-0.01672927 -0.13329014 -0.03909321
-0.11548737 0.02602867 0.04179719
0.12633348 -0.26701757 0.06851467
0.08725123 0.20800848 0.02491562
-0.25278109 0.07590292 0.03955627
0.19084252 -0.02355911 0.03978917
0.08597639 0.28840631 0.03351085
-0.00180205 0.31518379 0.05448189
-0.15223020 0.04090345 0.04667842
0.20065454 -0.21700889 -0.01182616
-0.20352265 -0.18740505 0.05120666
-0.33029145 -0.00153895 0.02887803
-0.15829122 0.28992385 0.05292351
-0.01287802 -0.39855015 0.03774071
-0.04679048 0.34921113 0.05211057
-0.22331810 -0.34698129 0.23222348
-0.07843156 -0.05442762 0.04416846
-0.24348488 -0.12605391 0.05022847
-0.19512770 0.21782711 -0.06952313
-0.12118348 -0.02686120 0.03082377
-0.18586320 0.02024975 0.04145099
-0.10648660 0.19621609 -0.00455236
-0.05768819 0.11305538 0.05881940
0.10606566 0.11094782 0.04355729
0.00387628 0.20447426 0.10922761
0.25066152 0.18315604 0.02986147
-0.02186325 -0.12223095 0.06353135
-0.25162807 0.11183827 0.06848473
-0.00529136 0.16625601 0.13234122
0.00753332 0.04121516 0.03378190
-0.13856795 0.08965448 0.04605342
-0.14701508 0.28366625 0.02909125
-0.13326457 0.04029249 0.04030180
-0.23316738 -0.12159988 0.04802442
-0.02538489 -0.19040838 -0.14717317
0.01634206 -0.20679563 -0.13782318
0.07372005 0.03712333 0.03154151
-0.27349180 -0.17212263 0.05196013
-0.13157089 0.30003038 0.03326000
-0.00387664 0.14752215 -0.15043737
0.13543598 0.30984679 0.02993109
0.04512960 -0.13779883 0.05111824
0.01195303 0.20004956 0.02741385
-0.05674331 0.10973165 0.03265412
-0.03146625 -0.19464687 0.03502619
0.01052319 -0.29761961 0.03582297
0.24287593 0.09599660 0.08865569
-0.06056239 -0.10506987 0.12925610
-0.04800812 -0.22479339 -0.07876526
-0.03487602 -0.25213805 0.04804139
-0.00787588 -0.39079511 0.01813652
-0.00997577 0.03962094 0.03118153
-0.17371142 -0.13353200 0.04262267
-0.03450933 -0.07905661 0.04331379
-0.07236901 0.28554219 0.08020381
-0.23487321 0.02751842 0.04800346
0.08005317 0.02754765 0.14124438
-0.16288127 -0.28860953 0.26266569
-0.25123674 0.17262518 0.04316893
-0.01196009 0.01795813 0.03680031
0.10240233 -0.21718021 0.04721738
0.19742487 -0.14551319 0.04512894
-0.04578564 0.06376072 0.04640190
-0.21595618 0.09467018 0.05172649
0.09766717 0.23439655 0.03299581
0.12700027 -0.25913015 0.04579204
-0.16951033 -0.28398508 0.06714390
0.01504597 0.04271260 0.02280334
-0.02862574 -0.28552285 0.04508764
0.24674518 0.01531781 0.01861581
-0.22291757 0.12244322 0.03867319
0.27861238 0.04405716 0.06264300
-0.08541760 0.29385740 0.03061965
-0.14337859 -0.25272143 0.05092271
0.10327849 -0.12921318 0.03851554
0.02450542 0.02632365 0.04526313
0.05028957 -0.22496884 0.05073587
0.05232181 0.18431485 0.04172482
0.05537074 0.13723581 0.03621781
-0.23933491 0.05732411 0.06636406
-0.15782808 -0.05516584 0.04422615
0.12870063 -0.20889804 0.04939191
0.20927504 0.14293437 0.22674586
-0.15733306 -0.00776432 0.03472410
0.24389014 -0.03488661 0.04169714
-0.17790622 0.29640296 0.04662707
0.05352731 -0.01159670 0.05148674
0.15228783 -0.06163345 0.04280663
0.07628455 0.06402638 0.04538487
-0.05821673 -0.25828332 -0.11151636
-0.15690508 -0.01600098 0.05911613
-0.28533849 0.22514309 0.04813056
0.01022631 -0.32497430 -0.07052607
0.07367485 -0.00298589 0.03153792
-0.04450201 0.16254419 0.04332575
0.03671438 -0.18066630 0.04526259
0.03037520 0.09321767 0.03631227
0.14925212 0.05004444 0.03569354
-0.04230931 0.16934097 0.02319859
-0.02240763 -0.18937758 0.05204663
-0.24454513 -0.24518128 0.02982374
-0.10697171 -0.06707135 0.03410526
-0.03158747 0.08248386 0.04899973
0.18243566 0.01393875 0.04328184
-0.08442686 0.29386064 0.03801905
-0.01157930 -0.01880386 0.05201872
-0.16273537 0.04126729 0.04527098
-0.09864154 -0.08838664 0.03590408
-0.23838404 0.03015269 0.06720398
-0.01726158 0.21943584 -0.08510594
-0.15452136 0.17159027 0.03924027
0.01103395 -0.28253329 0.05390603
-0.20185174 -0.09720018 0.03877622
-0.22104549 -0.12362531 0.05719341
-0.20906907 -0.01622024 0.03989954
-0.04705703 -0.20395401 0.05780462
0.07265422 -0.13591406 0.04135139
0.19391696 0.23135105 0.02893949
0.12983243 -0.22895649 0.04743394
0.14147750 -0.17785254 0.27419472
-0.15648377 -0.24112579 0.03998171
0.02493287 0.12390602 0.04673652
-0.09377462 0.24272078 -0.05435762
-0.20104471 0.27448845 0.05221450
0.08159798 -0.21284649 0.04095943
-0.07495582 -0.09214346 0.06440981
0.32966697 -0.08798100 0.03886414
0.00157377 -0.27849773 0.05727010
-0.11710781 0.29127505 0.02344212
-0.21968378 0.38645411 0.02657911
-0.11824723 0.10847743 0.05242793
0.03422810 -0.12167971 0.14588603
-0.10121816 -0.36425912 0.05359811
0.03305034 -0.23777610 0.04474688
-0.07109581 -0.10913701 0.05027662
-0.22606738 0.04418745 0.04711591
-0.18516535 0.25161350 0.02745804
0.10355541 0.12404049 0.16465291
-0.14945254 0.01122410 0.06898184
-0.25831407 0.02086604 0.05863091
0.14527825 -0.10722231 0.03877528
-0.05953956 0.20121166 -0.08808052
-0.02419676 -0.16374230 0.06287102
-0.07099839 -0.07870421 0.05381901
-0.01108824 0.13268332 0.06619395
-0.00513994 -0.28148717 0.07546310
-0.10741159 0.03594229 0.03898868
-0.27513742 0.18830854 0.05929571
0.10484887 0.17719483 0.05604069
0.08081039 -0.10344390 0.05164164
-0.04145764 -0.06203955 0.03227077
-0.12390187 -0.29532409 0.04735954
0.22302744 -0.15664430 0.05624984
-0.18446764 0.01615349 0.04680042
-0.01872237 -0.14652100 -0.06875655
0.23644371 -0.23175637 0.04632682
0.34737697 -0.11773840 0.08278903
-0.05588861 0.18007901 0.05368862
0.25362587 0.08435056 0.06225631
-0.13380405 0.31638905 0.04954879
0.02361754 -0.09342431 0.06910035
-0.00324863 -0.16870065 0.02368876
-0.25909775 -0.02946328 0.05819147
-0.23011424 -0.29019806 0.06400187
0.18837506 -0.29078656 0.04091918
0.02477484 0.12047762 0.04455751
-0.18124691 -0.27674150 0.05925920
0.00534505 -0.19176710 -0.00020623
-0.16940546 0.00138142 0.04621171
-0.15870318 0.10340045 0.04572637
-0.05556377 0.16703942 0.05069444
0.10196844 -0.21538761 0.02290085
-0.01540188 -0.33256891 0.05091649
0.08121462 -0.23727657 0.04608056
0.01076432 -0.29729101 0.04948683
-0.18893334 0.24260518 0.04010187
-0.13163719 0.26745814 0.04576482
0.13274123 -0.07265542 0.04887894
-0.03710975 0.10614881 0.05797810
0.02551040 0.26589134 0.05816463
0.05842747 0.26990277 0.04909635
-0.12581338 0.38907295 0.04440673
0.07216937 -0.35035321 0.04456355
-0.07966787 0.16817382 -0.03415699
-0.05778553 -0.39341861 0.07223186
-0.21602085 0.01467869 0.04169729
-0.06723507 -0.24455859 0.04705010
0.09499795 -0.04687988 0.05155270
0.11639228 -0.01215313 0.04620829
-0.08731616 -0.03898093 0.04076403
-0.26483956 -0.18281338 0.04987853
-0.02461663 0.11659004 0.04622231
-0.13145810 -0.18213674 0.05728638
-0.31222785 0.05325653 0.05875026
-0.08317361 0.38778573 0.05360172
0.06223963 -0.09785007 -0.06967869
0.02082765 0.01330611 0.04712085
0.26873282 -0.22717574 0.06616625
-0.11781988 -0.09345857 0.05245820
0.06825962 -0.28779602 0.06105734
0.16262013 0.32816058 0.05024162
0.06754737 0.01005305 0.07215403
0.01452466 -0.13507721 0.04663008
-0.14880818 0.19302469 0.05037563
-0.02000866 -0.29506990 0.05773726
0.06630578 0.12571399 0.04549304
0.04543446 -0.22180974 0.04106216
0.12337364 0.04795508 0.05128290
-0.15723239 -0.27751550 0.04814203
0.17628165 0.07796941 0.06279579
-0.28619617 0.18418574 0.04786628
0.06119752 0.07870540 0.06264837
-0.03382315 0.02159952 0.05228553
-0.14461882 -0.24661385 0.05258032
-0.24302748 0.09831603 0.05551521
0.01187817 0.15605922 0.05150312
0.16240941 -0.14919247 0.04873627
0.14781696 0.02018627 0.05813444
-0.13541955 0.10123485 0.02676931
0.04852001 -0.28727373 0.05968136
-0.06824282 -0.25934711 0.04985030
0.15196860 0.21771276 0.01166806
-0.11678284 0.13489629 0.03865938
0.01112430 0.03560396 -0.11806048
0.02307454 -0.19082764 0.06795324
-0.13421100 -0.08830611 0.04125454
0.15507075 -0.25636697 -0.08894883
-0.01611707 -0.15232836 -0.10370662
0.11476424 -0.24335410 0.05731243
-0.22031689 0.29943010 0.05628225
0.19051129 -0.26084724 0.10535555
-0.12698801 0.12997310 0.02246425
-0.15964910 -0.00554129 0.08089100
0.13242306 -0.06562616 0.03345387
-0.20968893 -0.22352284 0.02946387
-0.24414021 0.27442765 0.03752007
-0.03009882 -0.17300992 0.03569320
-0.12527330 0.31891668 0.05042141
-0.02275700 -0.28750747 0.04873331
0.13606350 0.29221249 0.10353901
-0.05688641 0.27716219 0.06301206
-0.02160932 0.37970507 0.04280686
-0.09689572 0.01348398 0.04310723
0.01226517 -0.26194948 0.05141057
-0.08150868 -0.28904411 0.03220479
0.04346748 -0.15995231 0.08012655
-0.09812012 0.24237287 0.05852477
-0.02796877 0.09436852 0.05581212
0.17139226 0.24698484 0.05316830
-0.08045804 -0.11822232 -0.07122575
0.02653853 0.32209915 0.03234155
-0.05593779 -0.10680278 0.04970324
-0.15157934 0.15943544 0.05170372
-0.02721713 0.15531111 -0.15088293
0.04331742 -0.19665149 0.02717917
0.01841017 0.28008482 0.04707184
-0.01523349 -0.04017530 -0.07982034
-0.05155098 -0.30836868 -0.09900215
0.12224461 0.17817269 0.03033815
-0.17311063 -0.25449067 -0.07986927
-0.06488232 -0.33409333 0.04700042
0.05973412 -0.26894531 0.03846468
0.09578064 0.33302191 0.01759727
0.09232037 -0.26647171 0.03419310
-0.06538595 0.07338541 0.02260041
-0.19051142 -0.31349552 0.03810830
-0.02143135 0.11639102 0.04048967
0.01932272 -0.39071429 0.05746884
0.00723543 -0.27263990 0.03573638
-0.12623258 0.38426420 0.06233726
0.04960521 0.03289811 0.03846480
-0.11917529 0.19125253 0.04425499
-0.15976179 0.15018190 0.04640500
0.05569774 0.05423623 0.02504824
0.09954202 0.09589723 0.05018900
0.00101694 -0.23052257 0.11916308
0.06179660 -0.01976521 0.02852079
-0.19773753 -0.26286799 0.04442838
-0.22808547 -0.05897743 0.05160481
-0.00079802 -0.21511200 -0.06371557
-0.15008940 -0.19111738 0.05992876
-0.08792316 0.34006691 0.03860892
0.01225436 -0.29784232 -0.12203611
0.17804708 -0.19706704 0.03217216
-0.24372876 0.05590653 0.04359478
-0.18125975 -0.04013634 0.05277536
-0.08221938 -0.25027150 0.03445332
0.02451253 -0.25485963 0.04019170
-0.04818459 0.23597041 0.05065335
-0.03722005 0.19610292 0.05069456
0.10266061 -0.02148578 0.05333884
-0.12188132 0.06889623 0.06110929
0.02814414 -0.20944911 0.04545869
-0.07577804 -0.08432831 0.04258612
0.03643160 -0.11359975 0.06107742
0.03340080 0.18021300 0.11843608
-0.09934568 0.22220244 0.03723909
0.05616285 0.27598464 0.05177134
0.07420178 0.20355430 -0.05385399
-0.20380202 -0.11205301 0.03908399
0.03196687 -0.04178737 0.03617129
-0.13070112 0.04095161 0.13788739
-0.22479191 0.27199730 0.02771997
0.05415195 0.38025439 0.03959490
-0.09504993 0.21911100 0.03698082
0.02918521 0.22623055 0.11377176
-0.07264939 0.36959040 0.04370259
-0.15252197 -0.01277027 0.04131798
-0.10515781 0.17773443 0.05253197
-0.23767981 0.19869116 0.07209652
-0.21166930 0.19804576 0.06003251
0.10023381 0.16657910 0.01740982
-0.09387171 0.00735962 0.05146589
-0.20525981 0.31763640 0.03877567
-0.17029446 0.14919628 0.04688887
-0.27922404 -0.04915260 0.04935206
0.02507650 0.19983128 0.06205738
0.01662189 0.02572192 -0.02387656
0.07455842 -0.00749137 0.05168197
-0.16541910 -0.16463539 0.04786216
-0.05022030 0.29835862 0.03620791
-0.26526055 0.14508784 0.02364208
0.09102362 0.23468812 0.03606106
-0.08169387 0.04478928 0.05975650
-0.04425817 -0.12050178 -0.07926631
-0.25355667 0.08578440 0.05103596
-0.03750218 -0.14102916 0.09060389
-0.23221737 0.29517341 -0.00809653
-0.02319862 0.05215366 -0.07774261
0.14504202 0.18528548 0.03673891
0.04434086 -0.20992513 -0.11631218
0.20787412 0.15224242 0.05201048
-0.08676264 -0.18856464 0.03205127
-0.21828119 -0.20379823 0.02907218
0.10822655 0.00924477 0.02580255
-0.18690106 0.17172527 0.04098248
-0.30126721 0.08337408 0.04318130
0.19401804 -0.22708440 0.05045399
-0.09502891 -0.03200129 -0.07481718
0.00840027 -0.30043587 0.07578638
-0.07004151 -0.00551324 0.04018216
-0.02117250 0.28140518 0.06960911
0.11237808 -0.00495926 0.04769771
-0.10410200 0.19609487 -0.05591159
0.02308886 0.27649266 0.05621456
-0.09358123 -0.05150209 0.05475148
-0.16004328 0.30466518 0.05144781
-0.08144505 0.24715388 0.05591518
0.01734322 -0.19142115 0.05865093
-0.09758432 -0.05051447 0.05235782
-0.12028335 0.18251409 0.10487901
-0.17804503 -0.12460443 0.10291540
-0.07822253 0.17053397 0.03608423
0.04042924 -0.06639989 0.04614072
0.07264129 0.19381928 0.01890369
-0.25197807 0.27561373 0.05133366
-0.13435182 -0.16687572 0.05417613
0.12457021 -0.14978673 0.05046163
-0.24913698 -0.25427735 0.04411033
0.27805561 -0.08988009 0.05991973
-0.04242685 0.19137506 0.10675573
0.17368621 -0.01642336 0.02761323
-0.23822802 0.15425059 0.05239026
0.12565967 -0.22197583 0.02137558
0.17364082 0.00344417 0.03480396
0.19474071 0.26845920 0.05180577
0.05205433 -0.20626430 0.07055350
0.00898638 0.28223187 0.03531729
-0.12068146 -0.19347763 0.03702855
-0.01910271 -0.01357758 0.05644395
-0.11485340 0.10374199 0.05325040
-0.15849733 -0.07160801 0.10710649
0.12387145 0.37281978 0.03241456
0.16453093 0.01991191 0.04723750
0.21371241 -0.06627519 0.05645065
0.22237240 0.00304210 0.04071502
0.12809858 -0.24223882 0.05150594
0.25662410 0.20681822 0.03997518
-0.02116513 0.27222994 0.04018250
-0.12327744 0.22670676 0.06245857
0.01821758 0.26319918 0.04652853
-0.19947195 -0.00235568 0.02688028
-0.08536129 -0.09982884 0.05019340
-0.11271505 -0.14632553 0.04406965
-0.22326040 0.07621016 0.05287742
0.10095435 -0.24752997 0.03401296
0.09318362 -0.17025712 0.04920726
0.02034354 -0.18304768 0.11642332
-0.06970777 0.11184531 0.04463464
0.04373608 0.33292741 0.05007192
0.21631944 0.16041538 0.05056649
-0.16426392 -0.15289454 0.05975208
-0.08837323 0.06319092 0.04185763
-0.21774447 -0.07917246 0.05433886
-0.24263595 0.00745733 0.05780117
0.13684317 0.00955705 0.04576570
-0.18912512 -0.03683561 0.10328814
0.00709538 0.23121208 0.05019712
0.06388471 0.14078005 0.07331559
0.02416817 -0.17962456 -0.08559516
-0.16905220 -0.05806549 0.05039147
0.14898849 -0.05201451 0.05285172
-0.22881013 0.14757273 0.06085130
-0.27836180 -0.20602658 0.06018475
0.11264013 0.24663880 0.05858789
-0.00953610 -0.05712958 0.18760511
0.26145080 -0.18911189 0.09098960
-0.19173640 0.32777861 0.06817871
0.01677799 -0.17296112 -0.01477679
-0.22597197 0.23742810 0.05978405
-0.13041872 -0.36511734 0.03259793
-0.23629519 -0.01664244 0.03053819
-0.13006549 -0.29483372 0.04876845
-0.13318887 0.17149794 0.04989661
-0.12166044 0.00407820 0.05311795
