1370
-0.01829199 -0.20322414 0.16621915
0.16544023 -0.16018046 0.17255951
-0.14366490 -0.37631148 0.16143054
-0.17009220 -0.36356625 0.14773516
0.15198128 -0.16547230 0.17518410
-0.16076463 -0.12552732 0.16564707
0.19383384 -0.33087289 0.17597008
-0.04032901 0.14560115 0.18143658
0.20827918 -0.25768435 0.15084659
0.10340418 -0.23753640 0.10156280
0.03071113 -0.10917868 0.17844296
-0.01115638 -0.25807193 0.16974641
-0.05320432 -0.02102432 0.10597590
-0.10917763 0.21661884 0.17284162
0.08642581 -0.27478656 0.16877924
-0.14504711 0.06627327 0.17752631
-0.00204182 -0.30499193 0.09496413
-0.21535912 0.28932250 0.15482754
-0.20633651 0.30720910 0.15918481
-0.10063335 -0.10461891 0.17881723
-0.03015526 -0.20258681 0.17338307
0.19965081 0.08396505 0.18149567
-0.12535754 0.33471739 0.16525628
0.03045040 0.32917780 0.17507650
0.19362551 -0.26801252 0.16983995
-0.17406923 -0.02277255 0.17257002
0.24462675 0.24952202 0.17724578
-0.15609363 -0.10076354 0.17445584
-0.09863682 -0.38111019 0.14806667
-0.18888077 -0.26522109 0.15215451
0.00047490 0.03580365 0.17753506
-0.10309173 -0.15636143 0.17668571
-0.18345132 0.02953257 0.16796020
0.13270579 0.33031082 0.17886180
0.23003119 0.26498389 0.15015313
0.23493411 -0.20563653 0.18069339
0.09775088 0.04949510 0.09627107
-0.22296819 0.33491391 -0.04504514
-0.02077410 -0.13281059 0.17715973
-0.18717206 -0.33310944 0.00767144
0.17056982 -0.14463882 0.18138005
-0.18444631 0.34552193 0.05423733
-0.05763236 0.41071549 0.16958752
-0.18464237 -0.31640893 0.05128843
0.14586730 0.22683457 0.16636470
0.11409181 -0.24880557 0.16709787
-0.01708592 -0.26551649 0.13585068
-0.15759325 -0.20913541 0.17861570
0.18761516 0.14057627 0.18024325
-0.10464709 -0.24914581 0.17577922
-0.00704822 0.00007451 0.17841405
-0.20844176 -0.32906502 0.08274971
-0.14059232 -0.00104492 0.17591779
0.19732049 0.23516721 0.16702619
0.09387326 -0.07070197 0.12735757
-0.18746909 -0.30276531 0.15975060
0.16825946 0.09195900 0.18016940
-0.17845601 0.16032329 0.15871124
-0.17965329 -0.21027291 0.17589065
0.20129026 0.34205583 -0.00258233
-0.21475732 0.32550934 -0.03230388
0.06317431 0.02105781 0.17220700
0.20678595 -0.06489423 0.17043152
0.10191903 -0.13265990 0.17963800
0.24025255 -0.04330730 0.15182552
0.19885908 -0.20543511 0.14709732
0.13698065 0.10704408 0.15398937
-0.07373144 -0.28543440 0.17336288
-0.06302129 -0.03899244 0.17428930
0.06214932 -0.00767136 0.17293647
-0.13976839 0.15667675 0.18038000
-0.12539394 -0.13222164 0.17413631
0.16157162 0.13671298 0.17041776
-0.23189348 -0.27360627 0.15831691
0.21479821 0.31860831 0.10918611
-0.03571195 0.36857525 0.17436735
0.17812823 0.36398765 0.15727538
-0.22749230 -0.32837877 -0.12505087
0.08297081 0.04792480 0.16871928
-0.15968463 -0.12272894 0.16041604
0.16742139 0.26026976 0.15307717
0.10736565 -0.02150670 0.17581511
-0.01285138 0.00377923 0.15433571
-0.14276640 0.11954746 0.16403566
0.13303500 -0.32687306 0.17226256
-0.21128879 0.35398075 0.13520952
0.01674569 -0.25635138 0.09399231
0.10548258 -0.33136475 0.17311653
-0.16657667 -0.35857129 0.11138540
0.03033857 0.15516585 0.16759712
0.00511668 -0.34120044 0.16205229
0.00227390 -0.22719117 0.16442302
0.19943607 0.28092039 0.16913261
-0.03283416 0.34211653 0.16930044
0.15026510 -0.30071557 0.16120183
0.05513378 0.21947837 0.16605447
-0.18716860 -0.33748427 0.16564597
0.09736571 0.21800502 0.16877009
-0.18946189 0.24150217 0.17101792
0.15921105 -0.08577706 0.16980165
0.06297939 0.21842527 0.17364648
0.01669870 0.03465436 0.17684075
-0.12595315 -0.17271250 0.17690083
-0.18729959 -0.28909460 0.10278150
-0.23190659 0.10606170 0.13377886
0.04701852 0.12411895 0.17628628
0.17539385 0.23310730 0.16259295
-0.11450697 0.35857493 0.16522855
-0.18053812 -0.06762459 0.17375877
0.11109988 0.28508028 0.16565490
0.16543941 0.28075752 0.17115404
-0.10938430 0.24467748 0.17259274
0.17982182 -0.26110870 0.15133217
-0.13345380 -0.21291795 0.17615658
-0.19976087 -0.07719244 0.15089343
0.19532222 0.33186480 0.09977710
-0.10189950 -0.03442910 0.17154790
0.04150695 0.05480792 0.17189488
-0.01158682 0.22726500 0.10464807
0.11196014 -0.29941919 0.17608827
-0.19778824 -0.37279144 0.06935448
0.07469311 -0.38086659 0.17430075
-0.14373498 -0.21946356 0.11070486
0.19806072 0.33945575 0.13484393
-0.01505323 0.00357394 0.16759299
0.14351660 -0.25988179 0.16009361
-0.13949771 0.39166015 0.16206920
0.12615246 0.36925584 0.16412051
0.15849325 -0.31797224 0.16213259
0.03932507 0.31850672 0.17610751
0.17365752 0.35173571 0.05675232
-0.18875955 0.34840512 0.04975239
-0.12932719 0.14927293 0.16122971
-0.13029559 -0.11455234 0.16659400
0.20150577 0.34266135 0.03024685
0.19319561 0.37904328 0.16588917
0.18514784 -0.35607669 0.01204227
-0.15693450 0.36450958 0.14894943
-0.21442626 -0.32232100 -0.15718810
-0.17909256 0.38955224 0.16953677
0.13279912 -0.09293810 0.17418616
0.02764424 0.39550751 0.17220493
0.09711555 -0.19005691 0.17454776
0.22016943 0.05748871 0.15078351
0.19746315 -0.34640610 -0.14315020
0.17648005 -0.35551369 -0.12370659
0.01428167 -0.36202747 0.16034754
0.10875045 -0.25800723 0.17468727
-0.05013442 -0.02233082 0.16448329
-0.19112359 0.20024154 0.16229758
0.04940369 0.05574473 0.18039709
-0.18145707 -0.30604777 0.11758640
-0.16501437 -0.33024970 0.17121229
0.19365998 0.04541789 0.17370021
0.17135650 -0.33126152 0.05779305
0.03616388 0.37633419 0.15531239
0.01280518 0.13370110 0.17237163
0.17574465 0.33394814 0.15240856
-0.03324500 0.39301586 0.17028740
-0.07377683 0.14377749 0.16782263
-0.06366328 -0.39685467 0.16382520
0.08079167 -0.22944926 0.17905453
0.04844229 0.04652129 0.17191404
0.10103206 0.36154619 0.13374539
-0.13251425 -0.22819713 0.17282338
-0.22616988 -0.23477426 0.12745959
-0.01751088 -0.02919945 0.17206703
-0.23007666 0.03845663 0.17963566
0.04413330 -0.07593288 0.12682697
0.05092081 -0.04325241 0.17733148
-0.15771019 0.00680467 0.17688218
0.22499439 0.27846390 0.16504154
-0.16302565 -0.17011306 0.17296796
0.18051809 0.36058247 -0.14989084
-0.04878698 -0.34660077 0.14088005
0.11124375 0.33417720 0.17220592
-0.01722464 0.10298215 0.16888362
0.21328372 0.10566458 0.17184840
0.04737158 -0.02370037 0.16845189
-0.10064928 -0.08141100 0.17305093
-0.08386856 0.05260077 0.17429197
0.19589090 -0.11491580 0.12863249
-0.04772121 -0.13489036 0.16422409
-0.20821305 -0.34794229 0.05680478
-0.02465428 0.11174932 0.17124644
-0.10241406 0.03055752 0.18346716
0.18520351 0.28067222 0.14610371
-0.18209694 -0.27013829 0.17431125
0.17152879 0.27668202 0.17605916
-0.19552922 0.00513981 0.14660534
0.04906266 0.36520529 0.16779499
0.08554910 -0.22301611 0.16712709
0.19300517 -0.07958788 0.17889330
0.03159747 0.01144058 0.17609096
-0.00850257 -0.33058062 0.17445745
-0.19384442 -0.36587417 -0.03287672
0.16332081 0.35551357 0.17760903
-0.16800740 -0.18483709 0.17649838
0.22164994 -0.31109393 0.15863949
-0.03755928 0.36960536 0.17555584
-0.08827373 0.09840535 0.17687981
-0.17020303 0.15543288 0.17336193
-0.19087294 -0.35217485 0.03268041
-0.03524893 0.24412265 0.17265147
0.21197829 0.36388293 0.03150006
0.07274359 -0.12586054 0.16287155
0.11653223 0.13570477 0.17734289
-0.05521014 0.24773154 0.17603861
-0.08336613 0.02761314 0.17666909
-0.06624290 -0.21914430 0.17151783
-0.19956139 0.34964657 0.11422210
-0.21627349 0.33905262 0.13084213
-0.18894978 0.31868380 0.07083806
-0.10098693 0.10783298 0.16587479
-0.13823241 -0.26137751 0.17518163
0.23709396 0.02860064 0.16603841
0.03255783 0.19858140 0.15623644
0.07998244 -0.23640311 0.16993819
-0.19498543 -0.34733930 -0.16539769
0.17887019 -0.01403109 0.15738505
-0.06869039 0.34286788 0.14322121
-0.14042997 0.27509642 0.17188261
-0.07748483 -0.33837816 0.17781383
0.14949614 0.15280503 0.17404279
0.14124186 0.21782222 0.17104791
-0.14850290 -0.32725292 0.17485744
0.05565851 0.10351805 0.17249976
0.21066183 0.24378929 0.16949606
0.14330262 -0.04057372 0.17007448
0.13798589 -0.40060160 0.15885860
-0.10983068 0.11057672 0.17172496
-0.16017833 -0.31221932 0.18280311
-0.20361388 -0.00960742 0.16760896
0.18229970 0.04330939 0.17529392
0.03365798 -0.09268646 0.17561290
-0.13945176 0.03282249 0.15465391
-0.14741299 0.26787639 0.17544490
-0.19958571 -0.36145952 -0.07290615
0.18269609 -0.09284811 0.12593162
0.07104860 -0.26420620 0.15906748
-0.13491572 0.12165535 0.17455412
0.02138643 -0.28327391 0.14970315
0.08244148 0.07066099 0.11050069
-0.13375983 0.06309277 0.17554219
0.19019756 0.06868535 0.11247622
0.15571314 -0.30572107 0.17116223
0.14533275 -0.05444691 0.16895844
0.13165170 -0.21914156 0.16003449
-0.00664208 0.07500501 0.16285947
0.20395729 0.30855653 0.17123377
0.17682797 -0.07087507 0.16154233
0.14854863 -0.12012267 0.17697947
-0.16529080 -0.15231960 0.13336371
-0.06563260 -0.01839278 0.15394552
-0.10026699 0.38569513 0.16364062
-0.11217676 0.06079235 0.17229974
0.00670652 0.34962958 0.12578538
0.07290812 -0.11264945 0.15833724
0.03439311 0.28912777 0.18215770
0.13735868 -0.13303156 0.15802066
0.13207552 0.30010784 0.17167035
-0.06918252 0.34131628 0.15988439
0.17677630 0.04146138 0.16838937
0.09243539 0.04405487 0.16691181
-0.04244809 0.24803784 0.16202329
0.03099329 0.09047924 0.17735566
-0.02521053 -0.14674601 0.17502604
0.08482413 -0.37164715 0.13975607
0.00090918 0.41201037 0.16022225
0.13820358 -0.02459064 0.10574892
-0.08569805 0.14714424 0.17810945
0.08913581 -0.13082139 0.17732137
0.21920870 -0.35613334 -0.14850269
0.11708547 -0.27913833 0.15232113
-0.16628784 -0.39973581 0.15633467
0.00917810 0.20521718 0.17327923
-0.08684772 0.30898368 0.17362064
-0.03978086 -0.18513972 0.17268349
0.07056995 0.03193466 0.17685752
-0.04482345 -0.15748724 0.17541599
0.07261037 0.35947776 0.16674732
0.05591670 -0.21237214 0.16449729
-0.19514222 0.32929760 0.15325972
-0.19380990 -0.32775021 0.13518611
0.03494229 -0.25480857 0.17824003
0.19158319 0.01021040 0.17081022
0.19497979 -0.33050895 -0.13352683
-0.11157879 0.23818502 0.17381635
0.12795813 0.23980324 0.17870227
-0.20224367 0.25122768 0.13063715
-0.22528300 -0.12189975 0.16055106
0.17673405 -0.33147645 0.10783575
-0.22278637 0.22128889 0.17609373
-0.17800421 -0.35111484 0.13379371
0.16159844 0.25863487 0.15652257
0.01385228 -0.29665971 0.14842723
0.16111794 0.17099157 0.16976957
0.20525287 -0.09891386 0.15021840
-0.22639735 0.18509670 0.12906808
0.15694451 0.18125996 0.08984224
0.03880320 -0.24994455 0.14600654
-0.17218372 0.39930987 0.02637937
-0.19960642 -0.08112264 0.17026100
-0.00972804 -0.05694756 0.17487939
0.04848304 -0.39157230 0.16392247
0.15040430 -0.18998638 0.12787983
0.22157679 0.09227219 0.14273097
-0.14075002 -0.05087889 0.17168920
0.10760740 0.33519188 0.18088652
0.06237606 0.31114829 0.16805281
-0.05782411 -0.24000360 0.14540146
-0.09333815 -0.29671860 0.17331189
0.10164881 0.34033310 0.16950895
0.20860851 0.34610739 0.04310193
0.07721931 0.26355001 0.15715745
-0.18487249 -0.12505904 0.12157129
-0.03992691 0.00892649 0.17503728
-0.05646950 -0.12796383 0.18048990
-0.02283967 -0.30109158 0.17499886
0.21757084 -0.36279494 0.14450079
0.21720845 -0.00367788 0.14911415
-0.15310973 0.31756043 0.12580141
0.04698627 -0.10330536 0.17135990
-0.03789326 -0.34304324 0.17271291
0.11019712 0.29408011 0.16945913
0.19573486 0.23260722 0.17090549
-0.10339447 0.22733214 0.17067851
0.08535102 0.08657075 0.17618908
0.16976507 -0.01156875 0.15567030
0.01610174 -0.02653154 0.14549556
-0.21931663 0.05495793 0.15873641
-0.00778253 0.38463879 0.17375229
0.03412736 0.15787223 0.16689467
0.00683085 0.40300328 0.14588827
0.24496309 0.17886610 0.17438436
-0.03015915 -0.28345224 0.16735558
-0.11395539 0.03082153 0.17973466
0.14758973 -0.40382141 0.17235425
-0.01307538 -0.29169083 0.16680640
0.07439234 0.29349577 0.17228118
-0.12407054 -0.34251529 0.15642807
0.15618534 -0.37458768 0.17587560
-0.11518755 -0.18509620 0.18220258
0.07748172 0.20948803 0.17606224
0.16605416 0.00246928 0.14505430
0.13817707 -0.22369601 0.17274037
-0.11263400 -0.16043457 0.17283042
0.17253093 0.36034101 0.10478092
0.17381251 0.36429411 -0.02697327
-0.20824812 0.15926465 0.17800654
0.22937110 -0.12745067 0.16213529
0.03954908 0.29610351 0.13720535
-0.21287967 -0.28228465 0.17138936
-0.20395958 -0.37078407 -0.01234165
-0.14694604 -0.36081859 0.16724710
0.14364380 0.02915677 0.17554885
0.19085014 0.19519846 0.13749145
0.22772902 0.11373217 0.15279591
0.09593860 -0.13390949 0.17617734
-0.14303052 -0.02769319 0.16600858
0.07093370 0.28599346 0.17954962
0.01705365 -0.29813075 0.16708373
0.21337226 -0.34933227 0.08635747
0.00274034 0.27203691 0.18296067
0.05087722 0.01799007 0.17584540
-0.10499229 0.31079739 0.16555314
-0.19798566 0.12245514 0.17971307
-0.05677168 -0.04772973 0.14915246
-0.18680747 -0.16982292 0.18219166
0.01775133 -0.24264558 0.17419541
-0.18510404 -0.34483525 0.00377999
0.23282374 -0.24919538 0.17091757
-0.07232475 -0.09109452 0.16658866
-0.06631269 -0.17409180 0.17008802
0.14698981 0.33389834 0.16659677
-0.20841005 0.40267360 0.16331500
-0.21365456 -0.08782528 0.16385356
0.04237730 0.19801281 0.16457537
-0.08424817 0.31174466 0.17918250
0.00405253 -0.35925859 0.17366479
0.13133229 0.09263813 0.17817327
-0.10612769 0.37084097 0.17511901
0.12110014 -0.28800315 0.16743040
-0.23559828 -0.22137876 0.17367113
0.19595312 0.27480006 0.14731073
0.22977997 -0.13456309 0.17609371
-0.16632500 -0.26539832 0.14800374
-0.19674000 0.16804345 0.17645308
0.20679966 0.30353630 0.16381308
0.18328200 0.09862413 0.17787528
0.11827299 0.16050780 0.16883476
-0.04273433 -0.25165281 0.17469451
0.03196626 -0.18233833 0.17065942
0.10420967 -0.02129831 0.15532666
0.11835499 0.27535841 0.16218162
0.23689970 -0.01569099 0.16326894
-0.12414008 -0.30384943 0.17456914
-0.12449271 -0.04412021 0.17480591
0.07644794 -0.23254882 0.17518732
0.07170453 -0.11921147 0.17419940
-0.15302810 0.14591037 0.17932263
-0.10834362 -0.38022885 0.15322214
-0.15486303 0.35966676 0.18093203
0.18991956 -0.15200970 0.16404900
-0.13762760 0.22827750 0.17258109
-0.08971987 -0.17054199 0.17308207
-0.13460778 0.36372936 0.11582050
0.23929313 0.12622091 0.16178069
-0.06824759 -0.38953167 0.17666054
0.04830587 -0.00669632 0.17014642
0.09370609 0.18715602 0.17578866
0.09003477 -0.02643269 0.16457503
0.06199798 0.31046024 0.17363222
0.17520419 -0.35694742 0.14071138
-0.18369597 0.26001063 0.18892522
-0.19775310 -0.09622742 0.14607422
0.10648221 0.18953854 0.10097611
-0.12286134 0.04917988 0.17227095
-0.01723413 -0.33588147 0.17668580
0.22196168 0.00184217 0.15868883
-0.01200841 0.30575994 0.16338322
0.14688376 -0.28936797 0.17134979
0.02269393 0.34411374 0.17305243
0.10322763 -0.13282046 0.16947630
0.09142815 0.34733403 0.09612253
0.01380716 0.22416860 0.09064941
-0.22363110 -0.36273900 0.18276991
-0.14200871 0.29186612 0.17982453
-0.05267429 -0.02006412 0.17079818
-0.08999386 0.22959062 0.17371401
0.21554640 0.31813920 -0.13099378
0.22820745 0.08375408 0.13949017
-0.05294907 0.08544261 0.17258604
-0.08428220 0.32885092 0.16985190
-0.04871714 -0.18001889 0.17533980
-0.09146531 -0.03170403 0.17379995
0.21099621 -0.20475987 0.16419807
0.06819950 -0.37056282 0.14392389
-0.12324721 -0.39456558 0.16753638
0.07073310 -0.37660298 0.14100732
0.19598204 -0.33449131 0.01793545
-0.22058517 0.34811863 -0.14227758
-0.11483024 0.17131676 0.15507151
0.23104601 0.16800120 0.15082812
-0.22444886 0.02130591 0.16937250
-0.14336717 -0.38612962 0.12848167
-0.22750378 -0.06380750 0.17806235
0.18509713 -0.34996697 0.12712894
0.09337588 -0.02472024 0.17599627
-0.09929626 -0.19623521 0.17363216
0.03088494 -0.37409836 0.14496671
0.09716748 -0.12289520 0.17145532
-0.22222701 -0.28300127 0.14398608
-0.10293955 0.07217409 0.15050806
-0.16033833 0.27351415 0.17057273
-0.12123998 0.10539952 0.17775780
-0.08449540 0.27882004 0.17244488
-0.17624933 0.16538684 0.16687095
-0.03698077 -0.37864906 0.17019610
0.07758109 -0.17102367 0.11473674
0.24770057 -0.21597983 0.14759399
0.03569035 0.27534178 0.15173788
0.08176978 0.30925027 0.14435446
-0.19359791 0.30835807 0.10329942
0.08981049 -0.06619616 0.17228289
0.10085071 0.09545915 0.17277840
0.11203693 -0.13596670 0.17574398
-0.21133426 -0.32810163 -0.04171939
-0.06009800 -0.31133220 0.16972452
-0.01325750 -0.34327728 0.16436864
-0.15228713 -0.23704986 0.15430629
-0.13419373 0.15339926 0.14032662
-0.21006773 -0.17267261 0.15396564
-0.05727717 0.15090266 0.18014738
0.16663136 -0.05112926 0.17540763
-0.13270262 0.18922102 0.17103487
0.20279117 0.34395736 -0.10660428
-0.19629952 0.09574630 0.14844944
0.03791834 -0.34589577 0.12177684
0.24346890 0.13813142 0.17330180
-0.05106433 0.05866396 0.17066334
0.01739849 0.14147596 0.14905576
0.18429571 -0.35956985 0.06998531
-0.19435632 0.33392829 0.01450697
-0.13104039 0.31417260 0.17917828
0.01933129 -0.27853414 0.16983683
0.02057796 -0.04957887 0.18468378
0.16908911 0.19431487 0.15724449
0.13608088 0.15633711 0.12224098
0.06685024 0.11003272 0.09621742
0.14926916 0.34556121 0.12190828
0.05448744 -0.15675597 0.15964514
0.20385957 0.31360796 0.16002478
-0.10052015 0.32867149 0.13589197
0.23208389 0.26315394 0.17584796
-0.03636292 0.05100503 0.17775519
-0.23743114 -0.01832063 0.17147599
0.02394684 0.26818699 0.17936713
-0.23739704 -0.31953305 0.16887550
0.04022661 -0.02931999 0.17980203
0.08049122 0.39908639 0.14087346
0.17948860 0.34058645 0.10651968
-0.00195595 0.25631952 0.17039761
-0.09400861 -0.04418368 0.15674146
0.18461597 0.36462834 0.15730008
-0.14681628 0.35987884 0.17649506
0.19348997 -0.34402692 -0.02100463
0.13668244 0.25627479 0.17713885
0.10487933 -0.18223259 0.17346479
0.01934639 -0.24016204 0.17566128
-0.11593211 -0.01236542 0.16894993
0.11642000 -0.05743143 0.17636329
-0.11373284 0.15912232 0.17290677
-0.01393538 -0.07287328 0.17613441
0.10322592 -0.29040119 0.17225051
-0.09773900 0.34817562 0.16976501
-0.14800763 -0.19320586 0.16815311
-0.15804020 -0.06575362 0.17663926
-0.10529684 -0.01308807 0.17409466
0.12961879 -0.30502862 0.18267363
-0.11690304 0.21349549 0.17828289
-0.21679816 0.23610455 0.16942714
-0.19001058 0.26861709 0.13418540
-0.22693345 0.24059282 0.16605075
0.06013902 -0.38290030 0.16602391
0.13183191 -0.16945866 0.16353752
-0.00664891 0.09261423 0.17927139
0.17816234 0.28989321 0.16535175
-0.19112974 0.07589070 0.17479801
-0.14310893 0.19663413 0.16915323
-0.03094000 0.39032990 0.17194134
-0.19809386 0.31366229 0.15946668
0.18718153 0.02420152 0.15620513
0.17445511 -0.32662049 0.12059831
-0.06563170 0.13230076 0.17353295
0.12656847 -0.08220567 0.17313209
0.12740967 -0.39978018 0.17383258
0.10059856 0.34644362 0.17484905
-0.04070871 -0.09039836 0.17501388
0.05139596 0.33837879 0.11195546
0.05185856 0.09575962 0.17279296
-0.04932763 0.15631621 0.16833660
0.22157028 0.10781977 0.15294722
0.16983742 -0.37494463 0.04877441
-0.00623983 -0.01308680 0.15820995
-0.16783923 0.24783482 0.13627216
-0.03031445 -0.36637896 0.17884645
0.15382126 -0.22338006 0.16040151
-0.04874285 0.08841965 0.11486095
0.22068161 0.05521756 0.17853463
-0.19459161 -0.39426285 0.13134660
0.08353684 0.03757656 0.16931257
-0.14874825 -0.13103890 0.16505569
-0.02083075 0.03746754 0.16414857
-0.16336691 0.41434619 -0.05038069
0.05929144 0.36514878 0.17640533
0.05215918 -0.22412769 0.18222542
-0.20760107 0.35776564 0.14784980
0.20416307 0.20798445 0.17748418
-0.03046891 0.13637815 0.17915697
-0.20372057 0.36745310 -0.00652903
-0.02234786 0.17992446 0.17292941
0.12491328 -0.29438692 0.17749356
-0.17945963 0.24732132 0.18227017
0.04839503 -0.30106032 0.16336228
0.21714851 0.35599810 -0.15980139
-0.02118509 0.33309701 0.14732295
-0.20727190 -0.19947951 0.13788831
0.19854854 -0.04895866 0.17107789
0.10297720 0.36907461 0.17907555
0.19415133 0.36249584 0.11561247
-0.21162719 0.36651325 0.08533557
0.02822666 -0.33451545 0.12145877
0.20091622 -0.18217090 0.16331099
-0.15929380 0.00154708 0.14625545
0.20942426 -0.35487878 0.00972819
-0.06660426 0.13985690 0.17342766
0.20259765 -0.34851894 0.17841274
-0.13098884 -0.22873437 0.17846730
0.17551386 0.05179735 0.18058106
0.23306228 0.06837585 0.17350908
0.09897079 0.19954781 0.17564861
-0.21213041 0.04270533 0.13602051
-0.00238127 0.07076156 0.17813681
0.10165223 -0.01829010 0.16875312
0.05681636 0.03000129 0.16292518
-0.12184849 0.02041440 0.17854615
-0.06693526 -0.12590447 0.18247393
0.15258469 -0.32204843 0.16962047
0.06702364 0.38904411 0.14260052
0.11343047 0.39331570 0.15607706
0.15527630 0.30034056 0.13785553
-0.18418966 -0.34708476 0.09586938
0.17058286 0.31381172 0.14156297
0.20786154 0.16192614 0.17489794
-0.13067284 -0.31803328 0.17036425
-0.20227003 0.21126164 0.13986242
-0.02358673 0.15684491 0.16171251
-0.19847223 -0.37013191 -0.09077096
0.14746614 -0.01238019 0.17498356
0.14950977 -0.07619622 0.15706499
-0.20400362 -0.37876627 0.17066154
0.06587590 0.39602172 0.15677980
0.21336462 0.21810618 0.10433666
-0.19006489 0.30947381 0.17037883
0.11624969 0.02875651 0.16465618
-0.01258443 -0.10101413 0.17834564
-0.07509864 -0.04148187 0.17798729
0.02280032 0.20775427 0.12358127
-0.08004820 0.16199411 0.15411955
0.20528035 0.34761265 0.02351126
0.20034277 0.02579939 0.15561818
0.01379730 0.30160433 0.16938064
-0.20181021 -0.36548334 0.02957416
0.15445355 -0.02514344 0.16621622
0.15125628 -0.20258509 0.15637290
-0.02651196 -0.39300820 0.16155666
-0.01694152 0.37501898 0.15932642
0.00041420 0.09334922 0.15655074
0.02032140 0.00638455 0.17483388
0.02555544 0.32849392 0.17241795
0.16650639 0.03882703 0.16701171
-0.20205210 0.30508491 0.17398107
-0.18501884 0.37266886 -0.10176460
-0.10685790 -0.19783151 0.17463535
-0.22840174 0.02571496 0.15236782
0.05236463 0.27581033 0.16949472
-0.22436279 0.33801442 -0.12212920
0.13978301 0.13415776 0.07620764
0.12759346 -0.26354966 0.17134519
-0.17659251 -0.19325832 0.17825773
0.02261523 0.10501049 0.18096590
0.08802760 -0.24476451 0.16444434
0.05659278 -0.21367857 0.16642597
-0.15147156 0.29809284 0.17688218
0.04979146 -0.00319535 0.17559783
0.20098010 0.17074944 0.15268409
0.05178726 0.29540360 0.17741893
-0.19043960 -0.22754742 0.13787973
-0.18057452 0.23515189 0.17653900
0.14774628 -0.37679920 0.14489082
0.18740177 0.26279742 0.13196142
-0.11466730 -0.09713207 0.17620403
0.01400509 -0.17007309 0.09123169
0.15070066 0.28896576 0.17288509
-0.22977783 0.25951326 0.15430669
0.11008444 -0.18280226 0.17052320
-0.23524189 0.08876576 0.17264764
-0.16942215 0.36915824 0.17552999
0.10097000 0.14560688 0.16239148
0.02288029 -0.00340946 0.16517852
-0.12726696 -0.05991238 0.17839010
-0.03948650 -0.02120790 0.09559378
0.03852573 -0.10231679 0.17878500
0.09400332 0.21581946 0.16819711
0.07610439 -0.25179791 0.17534126
-0.21423386 -0.07867996 0.14629309
0.12306399 -0.11774365 0.17455298
0.17863396 0.16951776 0.12818114
0.03864165 -0.17067286 0.17618646
-0.01025000 -0.32030910 0.17337939
-0.05116425 0.30245230 0.13217710
0.22772691 0.34652767 -0.12117769
-0.16675276 -0.25150129 0.17027602
-0.18063706 0.15018852 0.14663911
0.10603271 -0.37412536 0.13851096
0.10350843 -0.19592686 0.16915853
-0.19006670 -0.08170310 0.16622727
0.13659984 -0.13780349 0.17731716
0.18932380 -0.29652780 0.17274423
-0.07259234 -0.14851451 0.17004527
-0.06824894 -0.33949527 0.17923869
-0.10196473 0.09442358 0.17344084
0.00802528 0.04721482 0.17284967
0.08003737 -0.00713105 0.13822806
-0.19205926 -0.28929389 0.13578260
0.18570590 0.17533156 0.16659686
0.13473321 -0.20784520 0.16115414
0.08478220 -0.26012719 0.13239957
0.06178682 -0.10539126 0.17132579
-0.15955922 -0.01713379 0.17215811
-0.21660438 -0.22813591 0.18747358
-0.12505557 -0.25482666 0.16179709
0.05093151 0.26212931 0.17652935
0.06071027 0.02105056 0.16079137
-0.21556510 -0.14943387 0.16994305
-0.15318838 -0.04466676 0.17217311
-0.23157470 0.38479218 0.15279283
0.09964059 0.11127490 0.16190709
-0.15376237 -0.30597889 0.17525367
-0.04904139 0.33425814 0.16758415
0.11109439 -0.30003843 0.17657189
-0.13845098 -0.09937463 0.17987962
0.01236195 0.23999560 0.17159066
-0.07739036 0.02578160 0.17717972
-0.18183033 -0.35995129 0.10588839
-0.09152295 -0.13254446 0.17893249
0.21760231 0.20611978 0.14005093
0.08799888 -0.11963844 0.15083320
-0.12321997 -0.16870274 0.17270805
-0.19210999 0.34681761 0.08243343
-0.04789641 0.02751787 0.17730440
0.06251954 0.16361143 0.16041878
0.10984568 0.30627927 0.16627905
-0.02761723 -0.27298707 0.17659877
0.01738302 0.10670444 0.14959554
-0.21504399 0.09431229 0.16415548
0.19833855 0.15238886 0.16874775
-0.04224740 -0.03459019 0.16174060
-0.19636615 -0.27299318 0.13919610
0.04089904 0.32076007 0.10753837
0.09686935 0.39349830 0.16399650
0.16292451 -0.17889121 0.16420712
-0.09571248 0.04809549 0.16760001
0.12095461 0.23960999 0.16628368
-0.16245721 0.15844107 0.15814447
0.13820362 -0.23961088 0.16932380
-0.17196757 0.28390974 0.17235410
-0.06289801 -0.20636785 0.17404529
0.07261708 0.27290529 0.16420941
-0.18640152 0.04258806 0.17088550
0.20244303 -0.19142175 0.17260639
-0.18663046 -0.42039016 0.02613117
0.08063555 -0.02945609 0.17211871
0.19511779 0.25185692 0.15114802
0.01538441 -0.26419485 0.17886442
0.00022709 -0.21225697 0.10882162
0.15086409 0.11512245 0.16471234
-0.08735613 -0.15714967 0.16654101
-0.15889558 -0.34836656 0.11113651
-0.20082781 0.35764772 0.03929386
0.14404441 -0.37493056 0.11898836
0.17787194 0.33207920 0.13956250
0.14481556 0.15496598 0.14308204
-0.04464543 0.00849275 0.16921102
0.11710656 0.04703472 0.16965862
0.03640777 0.06851152 0.08859806
0.01118968 -0.03293078 0.17025876
-0.06875910 -0.02677804 0.15253972
-0.02427898 -0.37073374 0.14098693
0.13722463 0.31769413 0.18042088
-0.17512952 0.34462485 0.10312599
0.18825755 0.05141510 0.15728979
0.21204625 0.33896321 -0.05427067
-0.02052145 -0.06018259 0.19481580
0.21735242 0.27214861 0.14663856
-0.11464278 0.15529382 0.17538309
0.07381626 0.00158069 0.16951628
-0.15742615 0.12383837 0.17888752
0.13430627 0.04776156 0.16713147
-0.01690056 0.40823647 0.16392271
-0.09866819 0.05748942 0.17546599
0.19337039 0.33707976 -0.16835563
0.21072921 0.00170525 0.17259133
0.10627560 0.07443482 0.15774226
-0.03776518 -0.02971768 0.17335394
0.05698580 -0.25396600 0.17648947
0.19327375 0.22447504 0.17597422
-0.07741989 0.30440673 0.17909427
0.14312913 -0.21686161 0.17349060
0.13611804 -0.02560714 0.16687472
0.18099301 -0.39798740 0.17556107
0.10449135 -0.17331535 0.14790551
-0.21027720 0.13908917 0.13883665
-0.04310277 0.33787388 0.16988343
0.15739083 -0.35596848 0.15991187
0.01090232 -0.24116454 0.17551105
-0.02325783 -0.39525697 0.16749571
0.17818084 -0.33161199 0.08358293
-0.19022100 -0.36334205 -0.11984561
0.16086420 -0.23558930 0.17182323
0.18107024 0.37283462 -0.15896989
0.19153865 -0.35783368 -0.02423169
-0.20051171 0.21171942 0.11604371
-0.01135323 -0.38523990 0.17368203
0.21601659 -0.07034969 0.17011374
0.21375048 0.07744399 0.17696303
0.01908671 0.26923347 0.12748349
-0.02766449 -0.28729463 0.17284936
-0.12129779 -0.18403418 0.17018570
0.23744276 -0.16286182 0.15742661
0.05027734 0.34206057 0.18807295
-0.00573089 -0.30973265 0.17309536
-0.06813846 -0.39837226 0.18306665
0.19057424 -0.04035077 0.12560132
0.12841140 -0.12820774 0.17434981
-0.02468868 0.07427683 0.17526214
-0.19520180 -0.35971904 0.17905279
0.17834869 -0.34777474 0.14217508
-0.17967504 -0.23244484 0.17528935
-0.07804485 0.26966071 0.11830990
-0.07108304 0.30710578 0.18120188
-0.09428868 -0.17718719 0.10737891
-0.08331917 -0.35684156 0.11664948
0.10259645 0.19490811 0.15237351
-0.24628550 0.09739269 0.16657922
0.17172655 0.00086361 0.16224603
-0.16516803 0.36764961 0.16091919
-0.08051121 -0.20507447 0.17170794
0.17190216 0.26532373 0.15536940
0.16128527 0.15115047 0.18201098
-0.22300455 -0.15233779 0.15759560
0.14656830 0.10869798 0.15552108
0.08235112 -0.24592678 0.18143612
0.12427402 -0.19166635 0.15892701
-0.00322232 0.15447253 0.16723384
-0.01744536 0.08205758 0.16061978
-0.18366934 -0.29801250 0.17705067
-0.20515598 0.35262319 0.10950538
0.01092385 -0.01729014 0.16872206
-0.05068920 -0.03387574 0.17227048
-0.21608290 -0.04685221 0.12477821
-0.22382763 -0.04697818 0.16034721
0.18121672 0.31421444 0.13138595
0.04255661 -0.20411173 0.16648467
0.17144459 0.26444486 0.17108056
0.15154950 0.25042149 0.18154928
0.02153977 -0.04225563 0.14559262
-0.18974361 0.35816547 0.08155587
-0.11882363 -0.25487787 0.13346028
-0.14721873 0.18808775 0.16717385
-0.06370254 0.25385720 0.17436612
0.15619044 0.01835256 0.17612466
0.22888622 -0.25800347 0.13620518
0.17501196 0.12166922 0.17085397
-0.02459580 -0.00933012 0.17680353
-0.14141059 0.38765189 0.17139603
-0.18699309 -0.20026851 0.16867562
0.22213700 0.00106185 0.16942626
-0.21351911 0.20509638 0.16640234
0.20025459 0.00904559 0.13587528
0.11170699 0.02527605 0.15576367
-0.18265866 0.04150342 0.15081558
-0.14080647 -0.03142181 0.17731561
0.20737010 -0.23151785 0.11258116
-0.06106713 -0.31818318 0.15181392
-0.14900365 0.25466076 0.17066096
0.16217431 0.04817165 0.17343637
-0.13248029 -0.27872381 0.17138585
-0.13201815 0.37410185 0.17736778
-0.10511954 0.28481376 0.18281505
-0.08160090 -0.13497391 0.17780396
-0.23312345 0.33850154 0.16321857
0.08361779 0.15343469 0.16588183
0.13375570 -0.04298364 0.09838663
0.02850615 -0.04542811 0.17172869
0.15351066 -0.22878456 0.17629012
0.17223470 0.16366732 0.16158873
-0.19162820 0.13737406 0.15690382
0.19648087 0.10193152 0.17586963
0.18933637 0.19911355 0.17487338
0.02554380 0.39558688 0.17295358
-0.16847870 0.00225446 0.16909713
0.15721367 -0.12975724 0.14592373
-0.17333804 -0.35879484 0.18014765
-0.23795503 -0.19588467 0.15835032
-0.20333390 0.30169246 0.18060446
0.05319471 -0.35758215 0.16153316
0.05336590 0.30867282 0.17470688
-0.22428161 -0.27557284 0.13985217
-0.02123328 -0.04178186 0.16679667
-0.21584818 -0.29186141 0.16668819
-0.19330075 0.34207904 -0.09590016
-0.16605726 -0.05285017 0.14232725
-0.01227600 -0.22201508 0.17469807
-0.17525247 0.35576838 -0.15145887
-0.18940380 0.32168981 0.12435897
0.11344037 0.04794830 0.17164543
0.19649321 0.34464115 -0.01657219
0.18431732 0.29586938 0.15751374
0.11194476 0.10937600 0.18537970
-0.21770826 -0.01087918 0.15650597
0.19196323 0.34947652 0.08169197
0.06807117 0.01805107 0.16229321
-0.06323320 0.10273642 0.17349301
-0.14895554 0.33049911 0.15375891
-0.10996278 -0.10898432 0.17005162
-0.11310475 -0.19685665 0.17273134
-0.18725327 -0.33176762 -0.07523535
-0.18967283 -0.34057122 0.00774142
0.04613084 0.08589721 0.16461186
-0.15815330 -0.28845072 0.17272066
-0.07153998 0.36690757 0.16536796
-0.18530431 0.33625793 0.11349747
0.14681816 0.32334673 0.15472992
0.13725637 -0.14641811 0.17028150
0.06116351 0.22858573 0.16044781
-0.06849520 0.06544776 0.15603760
0.21127510 -0.34312546 -0.11262259
0.18985206 -0.38963351 0.09966077
0.21965420 0.23892510 0.15523672
-0.09975351 -0.11648954 0.13146894
-0.21029092 -0.33215970 0.10518140
0.20782852 -0.34497297 -0.14088261
-0.00946422 -0.38075542 0.13930020
0.00319904 0.10970940 0.15167493
-0.18256098 -0.28409201 0.17258987
-0.05056902 -0.08905144 0.16821763
0.02061940 0.38877273 0.17474286
-0.11731298 0.07573315 0.17095411
0.18923047 0.09276195 0.12970836
-0.17090741 -0.22680444 0.13929163
-0.21873589 0.20740244 0.17366163
0.12864032 -0.10024773 0.14458925
0.06742186 -0.24235259 0.17107950
0.22689599 -0.14562617 0.15493289
0.00706186 -0.07371270 0.17427556
-0.20373034 -0.08172384 0.17514852
-0.00421998 0.30943888 0.16482134
0.20588753 -0.28640670 0.17218190
-0.07912954 -0.40317106 0.16978037
0.01547745 -0.01789181 0.16944128
0.00279204 -0.31425241 0.17399354
0.22753407 0.26276109 0.15904903
-0.17052166 0.11273799 0.15894654
0.23439321 0.08818545 0.16219264
-0.09974852 0.29584572 0.16183686
-0.14852738 -0.32707742 0.17646360
0.17904985 -0.26921922 0.15751646
0.15842444 0.02095216 0.16387233
0.19838800 -0.17601156 0.17081761
0.09511435 0.26144254 0.17091452
0.06413917 0.25154465 0.17091298
-0.13041404 0.14292395 0.17311753
-0.08145617 -0.09532212 0.17416669
0.22927073 -0.12305547 0.17315766
0.20022731 0.13806465 0.13703950
-0.08978888 0.17186421 0.16942941
0.18218717 0.05087167 0.15580726
-0.15356965 0.27810466 0.16186222
0.06988944 0.04207560 0.17428634
0.05318381 0.06180163 0.17539404
0.05807017 -0.14481080 0.17646889
-0.10043342 -0.28640378 0.13655800
0.11412102 -0.14162770 0.17111593
-0.23333716 0.30975699 0.16724515
0.18257335 -0.36718217 0.09386674
0.09821303 0.02041800 0.17558347
-0.09537438 0.29152000 0.17111173
0.10619207 0.02631319 0.16805127
0.03474478 -0.02705955 0.17353190
0.15632634 0.17430267 0.17305431
-0.06359514 0.08234628 0.16611110
-0.04410718 -0.25943440 0.17508528
-0.13764080 -0.32464004 0.17169958
-0.05271674 -0.22722939 0.16215557
-0.00278991 -0.04821897 0.17064710
0.19676496 0.00330383 0.17573987
-0.01262204 0.33944857 0.16302991
0.03765658 -0.20116462 0.17246810
-0.06177904 0.07202330 0.17315775
-0.07523705 -0.07320659 0.16049978
-0.22465447 -0.06195155 0.16319260
-0.16692549 0.38362843 0.07232285
-0.02133797 0.13731247 0.14959078
0.14097846 -0.32456723 0.17615214
-0.20216477 -0.04731090 0.16550128
-0.10962731 -0.20568207 0.17413823
-0.13043827 -0.11959046 0.15509482
-0.14250925 -0.15290505 0.18098940
0.16631442 -0.13933675 0.16333294
0.16416053 0.32207558 0.15784025
0.13258491 -0.28110364 0.16915941
0.17792666 -0.14514184 0.13748662
-0.07740767 -0.33871639 0.14928569
0.05242511 0.25284255 0.17844133
-0.15071914 0.35936400 0.12132873
-0.16699283 0.25706363 0.16482125
0.13123815 -0.17157920 0.16582845
-0.10764883 -0.13106078 0.17152758
0.21291393 0.01854195 0.16598997
0.13276780 -0.34432057 0.16711587
-0.08428041 0.16904610 0.15995525
-0.18385905 0.40128797 0.16336316
-0.10701864 0.15798812 0.17749763
0.17540357 -0.29075712 0.12460025
-0.17620440 -0.39914796 0.17590332
0.12957588 -0.25646228 0.16813569
-0.10726313 -0.29826394 0.16722274
-0.16143133 0.11443195 0.15208751
-0.17890204 0.34887975 0.15419307
0.19655487 0.19581082 0.12499575
-0.14465216 -0.11369783 0.16920058
-0.17278272 -0.07632229 0.17435402
0.07730623 -0.01549758 0.17755437
-0.16148278 0.34063727 0.10263383
-0.01875433 -0.20069119 0.17789854
0.02476605 0.00808986 0.16964070
0.04298716 -0.03516378 0.18649581
0.01347289 -0.30328095 0.15943332
-0.06305526 0.13102840 0.17023957
-0.23480493 0.17093155 0.17436227
0.19654757 0.10570379 0.17779286
0.02846768 0.05564560 0.17344713
0.01461608 0.05901472 0.16885227
-0.02945466 -0.11549619 0.17354432
0.22539714 -0.03880177 0.18048507
-0.05510725 0.18828255 0.17645425
-0.14459908 -0.10284590 0.10827585
0.21094733 -0.10036279 0.15990797
0.23132685 -0.13369313 0.17836295
-0.00223272 0.23120564 0.18110773
0.22893542 0.17902014 0.13968857
-0.11070421 0.34815693 0.17920721
0.18449575 -0.07847886 0.14389230
-0.17419773 -0.09314152 0.14941178
-0.20173763 -0.08102812 0.16193005
-0.19435281 -0.35987496 0.14713334
0.16750212 -0.36273524 0.16355611
0.18300140 0.07063811 0.17402670
-0.13629605 -0.33524847 0.17934547
0.18234538 -0.36530942 -0.03865661
-0.05635546 0.00941323 0.17241940
-0.18407974 0.03426880 0.16955283
0.02008529 0.03064736 0.17310812
0.21489111 -0.08522263 0.14704032
-0.13186954 -0.38334358 0.17719616
0.07397536 -0.14902489 0.17336799
0.06086934 -0.38262790 0.16991962
-0.10364236 0.32777262 0.16396573
-0.14098072 0.23818950 0.17377362
0.19094002 -0.25828117 0.17448957
-0.01882879 -0.05611854 0.17819555
0.03331089 0.32383052 0.17413312
0.18145238 0.27564350 0.17615853
-0.15863115 0.40686840 0.16238350
-0.07065418 -0.39378592 0.16475140
-0.19865783 0.36699146 -0.16579679
-0.15978125 -0.37975052 0.15237917
-0.18266518 -0.16491276 0.16856585
-0.07221645 -0.18156508 0.17133152
0.12308434 0.00715310 0.17178436
0.23413390 -0.07985172 0.16935505
-0.12314315 0.05741174 0.17104760
-0.14390272 -0.22570971 0.16999716
0.04170537 0.02231887 0.16831595
-0.06263881 -0.18483362 0.17521687
-0.24562207 0.00217158 0.16974261
-0.10934256 0.38308376 0.13718453
-0.17951997 0.03677598 0.08603401
0.00726083 0.13498932 0.17198333
0.20151760 -0.27462730 0.17684653
-0.17219129 -0.19903366 0.16899408
0.02747614 -0.34618154 0.17917204
0.14242421 0.33954528 0.17512882
0.19594662 0.27990550 0.12568711
0.02278990 -0.22383341 0.17320165
-0.13575253 0.16316046 0.16985531
0.04945511 -0.37475449 0.17706619
0.04411120 0.23031136 0.16504809
0.07503125 -0.29044342 0.16193822
0.14830062 -0.09947700 0.17190832
-0.04029985 -0.36170560 0.15991178
0.20641956 -0.06106203 0.17742473
-0.05850829 0.04973511 0.17347923
0.18480524 -0.07909580 0.15404820
-0.10499015 -0.21266784 0.15420127
-0.14434770 -0.00594772 0.17255427
-0.19378626 0.16227841 0.17462039
0.07285044 0.12505586 0.17869109
0.17330641 -0.00768536 0.16795290
0.05153059 0.02628683 0.16637509
-0.06946873 0.12204316 0.17164254
0.03400927 -0.36503774 0.17627834
-0.07195611 -0.38972503 0.15991724
0.14241895 0.29852724 0.14773580
-0.15719682 0.06553712 0.17839929
-0.11160396 -0.04385327 0.08303548
0.21552147 -0.30849683 0.13286231
-0.12251683 -0.01839395 0.17011267
0.22827883 -0.32914442 -0.03225490
-0.12115341 -0.34789377 0.15251708
0.12873216 -0.12846741 0.17775880
-0.20163989 0.37481833 0.17887406
0.19500419 -0.20531549 0.14394009
-0.05386151 0.07916252 0.15342860
-0.11026119 0.02506096 0.17596640
0.05074561 -0.06025341 0.15942939
-0.21088219 -0.30514401 0.16606034
-0.17891122 0.28679594 0.16480526
0.13251361 -0.06867202 0.16958979
-0.13239513 0.37694740 0.17752130
-0.02755971 -0.30899385 0.17317593
0.18738595 0.31895977 0.09468379
-0.00641098 0.24909039 0.15831922
-0.04421342 0.23874512 0.17123690
-0.03836023 0.06946557 0.16650079
0.15556401 -0.31652001 0.17364253
-0.01784999 -0.27358568 0.16500060
0.01470592 -0.30971557 0.15437317
-0.05661288 0.29284334 0.17246538
0.10293239 0.22437897 0.17089456
0.17075276 0.28758031 0.17087397
0.09521930 0.04289390 0.11289549
0.04919667 0.36498052 0.16051614
0.00776932 -0.13721655 0.17573372
0.00109244 -0.02566575 0.17980607
-0.20856373 0.33917195 -0.04111879
0.10364529 -0.16235538 0.15488675
0.02022454 0.33096012 0.17854543
-0.00675631 -0.12485303 0.10652427
-0.16921847 -0.34782556 0.14753345
0.20167631 0.15471156 0.14306669
-0.18569848 -0.38724238 0.10920683
0.04994144 -0.31953454 0.17111672
0.10017474 -0.35603395 0.14814600
0.15365274 0.37988997 0.15528959
0.21933737 -0.29989362 0.16235268
-0.04783316 -0.00504792 0.16251361
-0.17923552 -0.30064341 0.15678672
-0.02342189 0.15999301 0.17444614
-0.01833606 -0.38446227 0.16187845
0.12363139 -0.28402454 0.16402738
-0.14204465 0.36958072 0.16551381
0.11311229 0.04669636 0.16355985
-0.07956246 0.27993590 0.16560934
-0.15009889 0.07503079 0.17619994
0.11816598 0.01368511 0.16982675
0.04762800 -0.01452523 0.16874860
0.20854494 -0.36341161 0.08404918
0.01429839 0.09233516 0.16071084
-0.21036366 -0.32912734 0.17688696
-0.14637503 -0.14059712 0.17451183
0.11133067 -0.30199867 0.09598856
-0.14891611 -0.14644174 0.17828718
-0.06587251 0.34458697 0.11886723
0.19824095 -0.35476595 0.05458090
0.20923853 -0.14943002 0.16421293
-0.24648479 0.05009638 0.16066834
-0.08567398 -0.15413436 0.17350058
-0.10109553 -0.27735037 0.16894302
0.18652010 -0.20986527 0.16258109
0.03580174 0.36710864 0.14213271
0.11379474 0.11165190 0.17190695
0.13811851 -0.23456514 0.17722356
-0.11446697 0.09130852 0.17582490
0.08204493 -0.21318041 0.17741169
-0.01638249 -0.14286202 0.16944459
0.14585024 -0.19823937 0.17635417
0.19623846 0.33861840 -0.05566924
-0.04172849 0.04645899 0.17388812
0.07455514 0.28434509 0.17271370
0.18350950 0.36548930 -0.11085430
-0.15338609 -0.13842465 0.16231482
0.02339027 0.03318809 0.12049202
-0.18899348 0.11703484 0.11008406
-0.20174399 0.38391429 0.15541598
0.13680448 0.40588045 0.16684967
-0.20794943 0.36205733 -0.08514749
0.20591408 0.35665905 -0.03870398
0.14661677 0.14819190 0.17189357
-0.01161025 -0.03515403 0.17331503
-0.20920824 0.35446829 0.11516106
-0.16508158 0.05873300 0.17419448
-0.14888588 0.13558508 0.17339028
0.18413724 0.20263031 0.12663318
-0.02577326 -0.23153368 0.16830191
-0.19168434 0.40004629 0.17054404
-0.20690870 0.29309529 0.14869234
-0.21611173 0.06259884 0.17506124
0.01292255 0.27542153 0.16701613
-0.06378447 -0.05975910 0.09717368
0.17382538 0.17197455 0.17660591
-0.12262294 -0.36648184 0.16745286
0.04617784 0.37538642 0.17078216
-0.23295590 0.08660670 0.16380548
0.07023541 0.30635509 0.16924156
0.00273532 0.20380095 0.18264659
0.10271511 -0.02275316 0.11839651
-0.17444199 0.04155952 0.17521437
-0.17021249 -0.36015242 0.09884416
-0.18172809 0.36312681 0.13062635
0.11968163 0.18212101 0.12199397
0.17832068 0.34284291 0.14697757
-0.20987302 -0.34384531 0.06082383
0.21011546 -0.05134688 0.17299168
0.12716915 -0.21932593 0.16410990
-0.22422561 -0.33214033 0.16385880
0.13422306 0.03877193 0.16105615
-0.15561123 0.19527178 0.17298454
-0.18237454 0.17966643 0.17098552
0.11281964 -0.24043360 0.17955071
0.10920812 0.00787495 0.09474277
0.08716840 -0.37632734 0.18577093
-0.10744943 -0.09415078 0.16702053
-0.03416012 0.37428513 0.16248526
0.16577686 0.07973701 0.16356492
-0.19841459 0.32385725 -0.16081253
0.12192561 0.33463690 0.17554449
-0.13269341 0.05859108 0.17340572
-0.17981878 0.37005171 0.12460303
-0.09037761 0.19438995 0.17225207
0.17277178 -0.13244236 0.12503777
0.04924204 -0.18212759 0.16932602
-0.20591590 0.35584497 0.06381771
-0.19917005 -0.16820127 0.11807345
-0.03937700 0.01641437 0.16937143
0.12126145 0.01017620 0.17188375
0.09136142 0.09651282 0.15046602
-0.23373559 0.19317730 0.16198350
-0.15134634 -0.17097029 0.16981484
0.22887331 0.07785939 0.16615801
-0.11437576 -0.38594747 0.16846678
0.23296194 -0.04538202 0.16144283
-0.21771276 0.35395569 0.07213999
0.15996557 0.12465662 0.13206480
-0.23102294 0.00223050 0.16969007
0.16754594 -0.18950832 0.15205030
0.19778258 0.09397051 0.15789163
0.12595125 0.20929840 0.17977528
0.18544234 -0.35847670 0.02478236
0.01960503 0.30657554 0.16730039
-0.14232135 -0.24547869 0.15786412
-0.00709406 0.00072001 0.16749471
-0.03672324 -0.06991215 0.17117409
-0.17909838 -0.05481061 0.13736857
0.17297640 0.41080296 0.17157917
0.18237004 0.16719609 0.14702094
0.21042958 -0.36503863 0.11117352
0.18160951 0.16648990 0.16319804
0.10481594 -0.28231695 0.17490564
0.20845309 0.30419630 0.16930076
-0.07787926 0.34290645 0.17948757
-0.11754279 0.20712009 0.18228379
0.04587369 0.26790550 0.17296484
-0.17350924 -0.13738948 0.14696570
0.07627255 -0.11557832 0.17936343
-0.05977254 -0.10864826 0.16317335
-0.12152898 0.22994800 0.17532150
0.14957511 -0.28408983 0.16290665
0.01222304 -0.23118132 0.17437430
0.20334092 -0.34146416 -0.05652674
0.02084269 0.24441609 0.17003225
-0.02568039 0.36632603 0.14694238
0.23386523 0.25885570 0.17512761
-0.17643289 -0.23575810 0.17505836
0.00119615 0.18175422 0.18629472
-0.13555513 -0.31547019 0.17139848
-0.19350195 -0.00564146 0.18056503
0.20235071 0.01869609 0.16777678
-0.20058949 -0.00073554 0.11731037
-0.04893173 0.20196694 0.18071261
0.21449539 0.36488098 0.10573298
0.01043049 -0.35354456 0.12087975
-0.19118863 -0.07774208 0.17461024
0.19407955 -0.03360043 0.17012791
-0.19325423 0.16518092 0.17211732
-0.22770438 -0.29362801 0.16827044
0.21359886 0.33665687 0.18085845
-0.07346623 -0.03931582 0.12858719
0.20828390 -0.14820467 0.13249457
-0.19203082 0.35698992 0.16184281
-0.03277393 -0.28474522 0.10634857
-0.13066044 0.31551567 0.18183541
-0.12278895 -0.37685412 0.16679464
-0.15627700 0.21544819 0.16195458
-0.17641574 -0.34741661 0.17471175
-0.02796014 0.29641521 0.16449343
-0.08006795 0.06002650 0.17410704
-0.16527250 0.10341220 0.17454936
0.05951343 -0.07825793 0.16849169
0.13576461 -0.24598092 0.16853367
-0.07669267 -0.11257367 0.17587791
0.05794786 -0.39305320 0.15492748
0.10672036 -0.08792065 0.16960070
-0.03855620 0.29053649 0.17883447
-0.10428557 0.10240404 0.11593382
-0.10342722 0.36013708 0.17892587
0.23179780 -0.28690499 0.15626141
-0.20763919 -0.39579585 0.16571988
-0.13453484 -0.29529160 0.17312424
-0.23239723 0.12269834 0.16891168
0.21282971 0.22102515 0.14813779
0.20806511 0.35431200 0.17589255
-0.20223078 0.26607579 0.15014884
-0.16455387 -0.02740507 0.17497668
-0.12008819 0.02817855 0.15901557
0.21209148 -0.35224399 -0.01620507
-0.22539228 -0.38862878 0.15484846
0.20028035 0.03919534 0.14366168
0.12120709 -0.07293990 0.07290651
-0.20751107 -0.22842678 0.14127351
0.16568522 0.14890857 0.17173682
-0.14818579 -0.35078150 0.17261714
0.17666319 -0.10951867 0.15261665
-0.10283308 0.34933943 0.14070041
0.08002144 0.09514341 0.16488014
-0.02972820 -0.14283326 0.16890633
-0.13363743 -0.31567386 0.18476397
0.05001961 0.39528817 0.16672260
-0.23591098 -0.33557200 -0.04219315
-0.12899812 0.40387568 0.15377484
-0.16408874 0.30827138 0.16359444
-0.14947796 -0.33110937 0.14376543
-0.16576609 0.14841971 0.16387357
0.01484968 -0.03377911 0.18068618
0.06614257 -0.34703058 0.11121885
-0.12610801 0.12261553 0.16493836
0.20845285 -0.33462393 0.06028339
-0.03149300 -0.00071429 0.17492901
0.21079288 0.35925663 0.08896647
0.10037351 -0.26768112 0.17812599
-0.20702328 -0.09617285 0.14088038
-0.12664692 0.20022008 0.16497581
0.20339809 -0.06423296 0.14957614
0.07149269 -0.09445174 0.17576487
-0.12896632 -0.04953521 0.17534995
-0.09802917 -0.40980637 0.16482554
-0.02527029 0.07607196 0.18468250
-0.20844907 0.36165020 -0.03392645
-0.16984344 -0.01490272 0.18009406
0.19557934 -0.36631036 -0.04149865
0.13999285 0.08441880 0.17160212
-0.02660540 -0.30695161 0.17750293
0.02925825 0.27195558 0.17708763
0.25562078 -0.14293075 0.16475163
0.19502059 0.09865450 0.16048644
-0.21153796 0.11702124 0.15602404
-0.18111353 -0.13514408 0.16657315
0.18718565 -0.23878190 0.17343564
-0.04009594 -0.28559256 0.17132814
-0.15234452 -0.05848109 0.16675904
0.21532397 -0.08659913 0.14078021
0.05055177 -0.07079045 0.17493950
0.21389763 -0.35914683 0.05556603
0.04230092 0.22505945 0.13750647
-0.11861451 -0.37261879 0.18261611
0.05715793 -0.02529782 0.16475892
-0.03132028 0.12985194 0.17258857
-0.19847243 0.10180479 0.18241560
-0.21467301 0.32589322 0.01140667
0.19711672 -0.36391622 -0.08384001
0.20694526 -0.39002958 0.17995711
-0.18430763 0.11666436 0.17737153
0.05970814 -0.12113340 0.16839725
0.09451220 0.09898583 0.15154363
-0.24913079 -0.06334015 0.15864895
-0.16762394 -0.22511743 0.16137034
0.18663032 0.16960081 0.16249059
-0.20209967 0.24357466 0.15548100
0.18724999 0.05980024 0.17885330
-0.08792832 0.28844482 0.16922000
-0.11152387 -0.06048717 0.17408916
-0.01903900 0.12909514 0.08666068
0.02078775 0.08837134 0.12078638
0.03036173 0.36164537 0.16513592
0.22954842 -0.24958023 0.18174264
0.14452340 0.32041386 0.17286502
0.07603819 0.38052925 0.14558643
0.07450429 0.34128040 0.10076844
0.14874956 0.23931593 0.14456411
-0.01916110 -0.09425111 0.17298251
-0.14752504 -0.05831545 0.15848926
-0.17409097 -0.37602144 0.15380211
-0.22349060 0.24792898 0.14417531
0.01503169 0.07394129 0.14689612
-0.08407244 0.34956253 0.17277221
0.10850631 -0.10812864 0.16633622
0.14248562 0.30521542 0.17227690
-0.02353909 -0.05430904 0.15848786
0.14872129 -0.00772945 0.17583750
0.13391457 0.26984918 0.17425497
-0.18751864 -0.15148579 0.17760909
0.18319514 0.07376082 0.16801330
-0.08412196 -0.02724377 0.18299809
0.16688319 0.14359042 0.16681120
-0.17293444 -0.35631096 0.14004843
-0.14778051 -0.18301314 0.17525588
0.08629225 0.15123604 0.09866066
-0.19807333 0.23972002 0.16471717
