1366
0.24117109 0.18705404 0.14695252
-0.10973994 0.28852847 0.14224660
-0.04054756 -0.34729999 0.13774630
-0.18944152 0.14043415 0.14738970
-0.14953302 -0.17818631 0.14070369
0.07648010 -0.31279859 0.13411507
-0.13942580 0.31695938 -0.04638065
0.06200620 0.17911151 0.13393909
0.11435103 0.29097158 0.15505365
-0.01237772 -0.11055338 0.14875065
-0.24387559 -0.07566379 0.13551129
-0.23735265 -0.33281279 0.12430921
-0.18802425 -0.30842239 0.11982559
-0.08272181 -0.13227847 0.15319709
-0.11401689 0.04300907 0.12345925
0.17894927 -0.32685268 -0.10782569
0.01029197 0.07642872 0.15065959
0.09433824 -0.24087718 0.14796144
0.00641390 -0.13600388 0.03594384
0.20660676 -0.09833630 0.14532405
-0.02906154 0.06139278 0.08575419
-0.06064060 0.23527488 0.14928862
0.14276987 0.13244890 0.14692150
-0.06256761 -0.12018493 0.01192635
0.04244340 -0.15426059 0.15021616
0.05227361 -0.08302949 0.14021049
-0.16212821 0.23919080 0.15098473
0.00622194 0.18027501 0.14012921
0.03338382 -0.24790566 0.14571656
-0.17156371 0.32616436 0.13735729
-0.10609594 -0.16434899 0.14989574
0.05708622 -0.10541499 0.15016273
0.05184857 -0.32734627 0.14816651
-0.18790419 0.07790929 0.14313109
-0.20061474 -0.01271791 0.14359039
-0.14120537 0.14465018 0.14776644
0.14977637 -0.06181937 0.13564128
0.20136043 -0.04194821 0.14448042
-0.10155937 0.07062652 0.15316844
0.13244860 -0.08952063 0.13681413
-0.02565387 0.22609597 0.14121860
-0.17884587 -0.35026091 0.15152474
-0.12931219 -0.31636342 0.15421219
0.14557487 -0.16306616 0.15178923
-0.23781224 -0.10778826 0.14687727
-0.19622032 -0.25916439 0.14723049
-0.00630057 -0.33724526 0.16290657
-0.12910581 0.25657645 0.15254951
-0.05062259 -0.10635465 0.14714892
-0.01382242 -0.31013218 0.14965190
-0.01438012 -0.06317688 0.12924658
0.12763506 0.17346102 0.14619657
0.13300125 0.16444984 0.14555399
-0.22037645 0.31309161 0.14053726
-0.04738386 0.06383066 0.15148368
0.23336935 0.28805631 0.13784184
0.11927222 -0.25797102 0.15400200
0.10285222 0.11765475 0.14718223
-0.07411252 0.00924295 0.15365939
-0.20938754 0.03753547 0.14973511
-0.07727048 0.08639903 0.14847475
0.04414868 0.29123142 -0.13074504
-0.14784075 0.27590871 0.15328556
0.09964375 0.11014100 0.11648941
-0.04597991 -0.06648402 0.15346816
0.01765586 -0.32095888 0.15082869
-0.11159877 -0.04472191 0.14949667
-0.20370287 0.05682537 0.12370405
-0.23245944 -0.08236612 0.15006161
-0.12471133 -0.24897110 0.13937289
0.08869107 -0.00118043 0.14161922
0.07411885 -0.25603253 0.15170714
0.03194813 -0.18293253 0.14941981
-0.16719364 -0.03468273 0.13147542
-0.11576061 0.10067256 0.14285725
0.23286645 -0.37433985 0.13600403
-0.15096444 -0.00797155 0.16038206
0.26971254 -0.13207990 0.13471836
-0.19946291 0.04705306 0.15350072
0.06062649 0.07940474 0.14458436
0.05176518 0.30888525 0.01630373
-0.16706632 -0.32137743 -0.03839763
-0.01957806 -0.27140072 0.15666923
0.22951251 0.01144051 0.14602144
-0.19623673 0.13411887 0.15510190
-0.07145207 0.07196946 0.14176930
-0.08037829 -0.12231179 0.14790624
0.14016680 -0.24443485 0.12810087
-0.00599798 -0.13701826 0.14528328
-0.13266985 -0.04086230 0.14696306
-0.14771268 0.09260459 0.13680005
0.10297452 0.02878783 0.14498553
-0.08443549 0.12665994 0.15610968
0.06432514 -0.30748230 0.15334162
-0.08723288 -0.17020097 0.13454016
-0.08107207 0.35369256 0.15000454
0.09215713 -0.10746914 0.13544598
-0.05089450 0.19895677 0.06895459
0.06934494 0.10948661 0.15332840
-0.23388961 -0.17202088 0.14644983
0.00748749 0.00212458 0.14830779
-0.18308383 0.14583494 0.14300722
-0.03182068 -0.07086814 0.14875230
-0.18257317 -0.00145224 0.14240986
-0.23572701 0.27455273 0.15703538
0.19455165 0.23031618 0.16186900
0.04369676 -0.30780831 0.01357598
-0.07870284 -0.22952437 0.15267941
0.01676320 -0.06641687 0.14223322
-0.02941901 -0.05745941 0.13655221
0.12879442 0.34110117 0.14578940
0.07527734 -0.26223800 0.14441371
0.05148978 -0.08656411 0.14401470
-0.14559622 -0.29128975 -0.12508433
0.00595251 0.18696547 0.14739388
-0.21203111 -0.03480624 0.14092517
0.11656003 -0.30901003 0.12854166
0.02029474 -0.14577900 0.14978726
-0.02951816 -0.23464356 0.15122828
-0.02968083 -0.28134149 0.02575710
-0.07636712 -0.09264155 0.15401852
-0.02621990 0.06915496 0.15208259
-0.12633860 0.09908676 0.13726094
-0.07456893 -0.27648216 0.14129212
-0.16428564 -0.00061276 0.14435671
-0.14773670 0.13626303 0.13750069
-0.01163094 -0.00054128 0.14820804
0.10658576 -0.17625728 0.12999751
-0.08377960 -0.30401662 -0.07368718
-0.00902746 0.14494237 0.14314868
-0.00175025 -0.08083946 0.02626811
-0.00956864 0.04640958 0.01896298
0.01776807 -0.06203472 0.14874139
0.04724988 -0.24768719 0.13926975
-0.07933345 -0.10342276 0.15269616
0.07176581 -0.32186711 0.14965847
-0.08287559 -0.30788845 0.14473912
0.06657089 -0.15000662 0.14179794
-0.02027317 0.16527152 0.15402897
0.00722328 -0.03318793 0.03577986
-0.19922061 0.20866622 0.15694064
-0.10143901 0.00375889 0.11898513
-0.01049476 -0.35379162 0.14866945
0.04405355 -0.16590303 0.14589338
-0.21366006 0.09042772 0.13107798
0.11507372 0.23161508 0.14509317
-0.09048110 -0.15231383 0.14841315
-0.15263753 -0.32577017 0.14569026
0.08298813 -0.11184681 0.15023051
-0.13309696 0.29064184 0.14366367
0.12298328 -0.11039485 0.14284226
-0.04034611 0.11772879 0.15245186
-0.03733681 -0.21517669 0.13137457
-0.07591152 0.30620331 0.15932983
0.21936840 0.03787643 0.11856131
-0.21217228 -0.02153075 0.13183890
-0.09078679 -0.21860310 0.14099993
-0.00862455 -0.08121390 0.13337253
-0.02945361 -0.19770576 0.14321515
-0.02162082 0.32364535 0.03338564
0.11922847 -0.24448794 0.11812916
-0.01139263 -0.22753328 0.15252800
-0.21298595 0.19149455 0.12969375
-0.16862522 0.19718145 0.15365110
0.07351527 -0.26973590 0.15189716
0.21115950 0.19919643 0.12738957
0.11684053 0.36423200 0.13181502
0.03821269 0.15320648 0.14528741
0.08505975 0.35023594 0.14513986
0.03269297 0.37161666 0.15477876
-0.03472605 -0.04158827 0.15375265
0.11681238 0.21381509 0.14816809
0.05893720 0.24896432 0.15198676
-0.06814739 -0.27930310 0.13549633
-0.01669820 0.36396551 0.14084215
-0.12554991 0.30561912 0.05642802
-0.14400536 0.35916138 -0.09092447
-0.01650304 -0.06047407 0.15092659
0.11247874 -0.11781302 0.14444289
-0.12851213 0.02361443 0.15648107
0.08061723 -0.06086706 0.11932513
0.25540859 -0.28356028 0.14040948
-0.02555009 -0.09222136 0.13924842
0.18624771 -0.38478783 0.12629983
-0.00431264 0.20323032 0.13618392
0.12040016 0.04648472 0.13946429
-0.03105075 -0.10860486 0.14816341
0.09979750 0.27751702 -0.02756878
0.07100812 -0.19666344 0.12167506
-0.07723483 0.25607678 0.14748172
-0.22910270 -0.07443399 0.13968915
0.06561580 -0.30177054 0.15459543
-0.09775699 -0.12001617 0.14827894
-0.00777152 0.02799886 0.05228925
0.13541347 0.25472909 0.12610847
0.24419072 -0.32070202 0.13811161
-0.17800549 -0.08291686 0.14667937
-0.10669187 0.30809247 -0.01162588
-0.16787429 -0.00924367 0.14062683
-0.08802198 0.30099010 0.16356580
-0.11260897 0.16590892 0.14471096
0.15406799 0.26725081 0.14572597
0.01501043 -0.02250066 0.14662136
0.05799375 -0.19503245 0.13751747
-0.20930472 -0.05261004 0.13217281
0.04463331 0.32075870 0.14751005
-0.12427879 -0.30490816 0.15135755
0.00152078 0.32755744 0.00536325
-0.03986487 0.10017057 0.14500849
0.10836726 0.23768826 0.15162289
0.22459339 -0.07391553 0.12794974
0.22652906 0.11928591 0.14040090
0.08052894 -0.26639476 0.15982418
0.04285993 0.28639087 0.13085642
-0.25589398 -0.19759676 0.15431082
-0.17610079 0.06005633 0.14874214
0.08470144 -0.32526964 0.15737838
0.06821960 -0.28319225 0.12159292
0.08578226 0.20796794 0.13964012
-0.20758997 -0.10219425 0.14366676
-0.08540087 -0.10692196 0.15195651
-0.02762020 0.20787507 0.14990012
-0.07042816 0.28063139 0.14032133
0.08152452 -0.33069548 -0.09594544
-0.09705251 -0.34399870 0.14267977
-0.23300131 -0.04372013 0.13992952
0.01921368 -0.27809435 0.14847162
0.06895784 -0.11253032 0.15636308
0.05217172 0.24905485 0.11392988
0.08388004 -0.04161163 0.14307347
0.05493863 0.19420648 0.13925803
0.06075720 0.31285989 -0.01380241
-0.19177732 0.10431303 0.14453532
-0.00367055 -0.38867021 0.14044270
-0.15769608 -0.33099559 0.11771267
-0.21158582 -0.11626153 0.11859255
-0.02013233 -0.10171170 0.07950370
-0.01002458 -0.32486200 -0.12231629
0.00682388 0.30804700 0.14761917
-0.16769516 -0.12491258 0.14823011
0.02899572 0.17610025 0.15341467
0.05190296 -0.03758864 0.12817246
-0.00404637 -0.17827621 0.11179209
-0.24038650 -0.23081605 0.11853477
-0.23791257 -0.30431747 0.15926117
0.14577484 0.31715351 -0.08172683
-0.07866426 0.20589754 0.15219550
-0.21068540 -0.08149867 0.13848987
-0.01699769 -0.31008044 0.15371940
-0.03606020 0.18902670 0.15250443
0.00327144 -0.31972080 0.01802839
-0.24380451 -0.18899502 0.13337341
-0.06829951 0.26956755 0.00623654
-0.00669336 0.13345025 0.14477709
0.09119307 -0.06792329 0.14118613
-0.05944337 -0.19642007 0.14226888
-0.20172879 -0.22129115 0.14876214
0.02152412 -0.28859264 0.14838466
-0.19967276 -0.28086904 0.12444499
0.11468899 -0.39210814 0.13471174
0.05872264 -0.31404155 0.14531718
0.07750776 -0.19968092 0.15286459
-0.13393375 -0.13516617 0.15038925
-0.10682981 -0.01431800 0.14414138
0.09982836 0.06748586 0.13117449
0.04217941 -0.05107351 0.14950895
-0.06944524 -0.05160668 0.15515400
-0.06805290 0.20580666 0.13877651
-0.14501506 0.11727908 0.14578927
-0.11724968 0.00302674 0.15203038
0.03717257 -0.01284593 0.15283525
-0.08183058 -0.18024454 0.13114554
-0.18496650 0.01380275 0.15187439
-0.17412616 0.04981828 0.15101445
0.22441348 -0.05460156 0.13769321
0.09121500 0.31543675 0.09799400
0.09611039 0.32181311 0.12920918
-0.23677920 0.06839231 0.13927099
-0.24050914 0.00527207 0.14957680
-0.10240456 0.20042498 0.12565228
-0.19261101 -0.19126447 0.13678691
-0.26411435 -0.00933735 0.14843060
-0.19427297 -0.39452007 0.15492606
0.08378781 0.31824368 0.12949698
0.22750697 0.36600304 0.15462521
0.02390352 -0.22247607 0.12263711
-0.06636946 -0.31290364 0.16598581
-0.09223746 -0.28357872 0.14805646
0.11250289 -0.24865654 0.14651600
-0.02113808 -0.30924457 0.13728377
0.16675162 0.04864006 0.14892881
0.14900552 -0.05940352 0.14948413
-0.18748668 0.34277120 0.15272021
0.10349081 0.36229861 0.14557037
-0.07839108 0.28578150 0.14686540
0.15130973 -0.04503584 0.14324984
-0.18452939 -0.14875987 0.15052602
0.06282671 0.27835751 0.13748345
-0.07637472 0.32054666 0.15080595
0.06060696 0.34858054 0.13035452
0.12721720 0.24013886 0.14326440
0.22152245 0.32674479 0.14249699
-0.10512207 -0.21402995 0.14300171
0.06721909 -0.32471818 -0.13618261
-0.17076980 -0.19881675 0.14580947
0.07559007 -0.31939858 0.02364311
-0.24314383 0.17514440 0.14436992
-0.08822126 -0.28187114 0.14705753
0.01999306 0.07562175 0.14479835
-0.06853363 0.12063812 0.12635523
-0.16745850 0.33882228 0.13794979
0.05887401 -0.28171957 0.16127245
-0.18712536 -0.24355879 0.16311619
-0.00649570 0.02595092 0.14282036
-0.05948782 0.31877908 0.15749785
0.04444425 0.25934958 0.05920256
0.11211398 -0.37377596 0.14746574
0.11231712 -0.29980940 -0.10150513
0.10468873 -0.15719371 0.14034812
-0.12719849 0.36366934 0.13183391
-0.18105191 0.12934351 0.15229762
0.07877643 -0.32700178 0.14273793
0.04673372 -0.21270698 0.05854731
-0.13101943 0.17801525 0.14105622
-0.14369811 0.02439649 0.13481446
0.10394884 0.04179434 0.15003985
-0.20969543 0.02714943 0.14527854
-0.05143050 0.24685371 0.13907690
0.03876026 -0.22016335 0.14500794
0.03474442 -0.06861620 0.14854780
0.09339003 -0.31365436 0.10796486
-0.06380433 0.26305071 -0.01712572
-0.07541053 -0.33260152 0.14742160
-0.02424926 0.06679253 0.15185949
-0.15771367 -0.09252396 0.15272625
-0.12889089 0.16738430 0.15155579
0.02119713 0.19804037 0.14244939
0.10457854 0.21853587 0.14318229
0.07668877 -0.02502251 0.13591692
-0.05318407 -0.32733423 0.12075678
-0.13818540 -0.11837345 0.12584275
-0.09811489 -0.28169191 0.14193919
0.00958574 -0.18356892 0.03068724
0.16210990 -0.02230521 0.14140803
0.14838919 0.15841332 0.12529232
0.02647071 -0.37306181 0.14990345
-0.00916862 0.27099478 0.03303632
-0.10417569 0.37430400 0.13423987
0.11845738 0.35678759 0.15029380
0.21281090 -0.19559896 0.14952019
-0.10767664 -0.14098622 0.14475024
0.02730902 -0.27927440 0.00602820
-0.02169216 0.12629320 0.08453880
0.09676981 -0.16158251 0.14863881
0.00247043 -0.03382874 0.14663544
0.07200252 0.23392835 -0.02469584
-0.04725976 0.06373287 0.14993748
0.15171841 0.21919887 0.13293338
0.04226810 0.30760691 -0.04407589
-0.05150763 0.19358991 0.13787869
-0.08264181 0.30316234 0.14790228
0.08932025 0.28271830 0.14563714
0.02798138 0.16480131 0.04849375
-0.12705521 0.36102015 0.13561259
0.22394358 -0.27293602 0.13851810
-0.12081712 -0.09598311 0.12774026
-0.17224903 0.34068754 0.15147117
0.02315033 0.28317881 0.14043027
0.05785331 -0.01569950 0.11737279
-0.00018618 -0.00309356 0.10243829
-0.11167170 0.29665291 0.10953421
0.02027088 -0.12680992 0.15430772
-0.18515083 -0.00049920 0.15212718
0.02882189 -0.31061915 0.13213508
-0.15451770 0.34735215 0.12800515
-0.05166288 -0.28603983 0.14889435
-0.07201568 0.04923518 0.14858423
-0.21624359 0.15633768 0.15325353
0.00496146 -0.08818769 0.15353209
-0.13790265 0.09793405 0.14553815
-0.06328794 0.33332413 0.12007204
0.07119395 -0.08102064 0.13759130
0.04613611 -0.20699918 0.15727757
0.10300987 -0.13849902 0.15189618
0.14889041 0.26403475 0.14406657
-0.07025303 0.30493030 0.14942679
0.19377407 0.06141005 0.14975598
-0.09452530 0.24788293 0.15195234
0.09775179 -0.26498851 0.13299638
-0.15638292 -0.14591439 0.16790293
0.07232040 -0.29781127 0.13835369
-0.14523768 0.00773124 0.14355159
-0.03606546 0.12967229 0.03965566
0.19163266 0.31520456 -0.11696784
-0.16171417 0.29759926 0.14695907
-0.17880423 0.18918255 0.14905412
0.00872844 -0.30319822 0.14830564
-0.07884265 0.24688555 0.15848617
-0.13480660 -0.30287337 0.15101315
0.09666052 0.25668955 0.14960238
-0.09706111 0.02406080 0.15053917
-0.06469563 -0.10012883 0.13921270
0.07024337 -0.40971994 0.13035998
-0.10335988 -0.31919241 -0.00912199
-0.18807112 0.16618888 0.14720075
-0.05294013 -0.21764663 0.04427185
-0.11957489 -0.32385123 0.13195588
-0.13937326 0.15263279 0.13638489
-0.11936065 0.09441369 0.14382000
-0.00322623 -0.21013597 0.14462651
-0.00294713 0.07761402 0.14716206
-0.01227570 0.13853031 0.13574833
0.15677269 0.33439606 0.12355392
0.07907728 0.03432313 0.14311163
-0.03886214 -0.18270510 0.13644628
0.14569411 -0.29369810 0.18098484
0.01965714 -0.19811681 0.13474189
0.02014298 0.17127985 0.12670277
-0.16346121 -0.32274115 -0.02995235
0.10499328 0.17232701 0.14909853
-0.06296348 -0.04194400 0.13618785
0.03077562 0.28754276 0.13966078
0.06437355 0.12537855 0.14984189
-0.07724174 -0.33119857 0.12873717
-0.01404920 0.14084800 0.14603105
-0.08249418 0.31495702 0.14825699
-0.10451666 -0.21439506 0.15338242
0.05689373 -0.05725995 0.15549141
0.11570194 -0.19606584 0.11439732
-0.21881758 0.17444485 0.14088313
-0.18641227 -0.07060902 0.15113536
-0.12050194 0.03310506 0.16275416
0.04460255 -0.30464682 -0.07026835
0.04828564 0.24681142 0.15508485
0.02120931 -0.29843765 0.13983870
-0.07896980 -0.34660441 0.12292276
-0.09116744 0.33430231 0.15698028
-0.03133600 -0.28758231 0.14166504
-0.06291507 -0.03581963 0.15902929
-0.08944787 0.05127900 0.15124691
0.22092557 -0.09723406 0.14315532
0.00291635 0.27468786 0.11923920
0.05138072 0.23370904 0.00413500
-0.19254687 0.22703460 0.14471310
-0.13408832 0.31773818 -0.13188861
0.13850570 -0.05887245 0.12291968
-0.09563462 0.30730852 0.15553315
-0.06005121 0.13303480 0.13697176
-0.05224004 -0.01471566 0.14843571
-0.09030478 -0.00161827 0.14637449
0.08005548 -0.30876058 -0.06941623
-0.11997598 0.33223701 0.13868508
0.18813770 -0.21388912 0.15149839
-0.12934774 -0.15486714 0.14769521
-0.00651894 -0.09614082 0.04808401
0.15378278 -0.03724778 0.15241368
-0.11011235 -0.31689665 0.02757477
-0.11723699 -0.16308981 0.12409408
-0.11937065 -0.06111249 0.15526496
-0.10288888 -0.22119582 0.15072408
0.13441235 -0.12970391 0.13150221
0.05600424 0.31138980 -0.02635071
-0.05122045 -0.25197840 0.14950585
0.07817377 -0.33265594 0.14110203
-0.04736954 0.12110953 0.14747693
0.10701956 -0.23217915 0.13719274
-0.25763625 0.20228302 0.14965482
-0.25755712 0.23794861 0.14132811
0.17575453 0.32435641 0.12165746
0.22797161 -0.05476445 0.13216186
-0.14788863 -0.27124143 0.13226601
0.09053300 -0.08227653 0.13214347
0.09445462 0.17710488 0.13426982
-0.20107791 -0.29802400 0.13274854
-0.03738333 -0.29355192 0.09094682
-0.01242645 -0.20943232 0.15541981
-0.10909212 -0.19830486 0.12651476
-0.12148881 0.28258044 0.14315425
0.03237605 0.06042503 0.14263742
-0.25265676 -0.11051056 0.14686590
0.06396203 0.16331255 0.14327650
0.04993361 -0.31297803 -0.02853139
-0.13643974 -0.08569038 0.14984649
0.04905929 -0.01144792 0.15330689
0.14601696 -0.16797920 0.14692232
0.01063934 -0.01102091 0.16594198
-0.03356056 0.25914448 0.12111226
-0.15400812 0.25369585 0.13026163
0.19045231 0.39460921 0.13939819
0.07564619 -0.21813834 0.14828980
-0.00890501 0.17648178 0.15110582
0.12546061 -0.32218531 0.15079476
-0.15838501 0.04964906 0.13998327
-0.08528307 -0.20020232 0.14077674
-0.11023338 -0.04743604 0.14836165
0.11032753 -0.01017188 0.15291265
-0.06212483 0.09771048 0.14977059
0.14275503 0.18840027 0.15206251
0.07791240 0.05115631 0.15564978
-0.16413446 -0.32986864 0.10544745
0.04758648 -0.30939043 0.13756807
-0.07773715 0.18129538 0.06308928
-0.00362941 0.00566447 0.12462682
-0.25231120 0.03163208 0.14517671
-0.06677938 -0.02074761 0.14908284
-0.23215783 0.24226414 0.14646474
-0.11765993 0.07406226 0.15808080
-0.07162322 0.24578696 0.02651062
-0.04572140 -0.34839436 0.13442619
-0.15022239 -0.20604298 0.16565043
0.11693877 0.32324773 0.14793445
0.06043642 -0.05900202 0.13760319
-0.17138860 -0.14178604 0.15046613
-0.19762909 0.04250921 0.14987375
-0.08979511 0.31330451 0.10227132
-0.14571953 0.11503945 0.15263221
-0.02514707 -0.16854683 0.13776401
0.09346152 -0.18420359 0.14790419
-0.16462854 -0.33332002 0.13790630
-0.16301395 -0.33225524 0.12217546
0.10076571 -0.15308823 0.15259945
-0.18042207 -0.04710539 0.13831469
0.11231862 -0.28403696 0.15250082
-0.04405700 0.12150821 0.15334493
0.15428506 -0.24540181 0.13390958
0.01804288 -0.21112898 0.05211560
0.00391757 -0.10384071 0.15420553
-0.05549878 -0.22548331 0.14345261
-0.06123415 0.06609144 0.05874762
-0.08915473 0.19697729 0.14744762
0.09190942 -0.30948585 0.14362828
-0.13214478 0.11112528 0.14799798
0.02000149 -0.26835832 0.02017657
-0.22412427 0.26671883 0.13205425
-0.21565805 0.26408291 0.13377127
-0.10679539 -0.10235856 0.15480103
-0.10122127 -0.23202910 0.15002893
0.14001477 0.10548088 0.16046423
-0.16678482 0.28602546 0.13864978
-0.05555022 0.21813241 0.15733013
0.13014638 -0.21894760 0.14453417
-0.17905417 -0.02297349 0.14718831
0.15137526 0.25724047 0.15231264
-0.13593186 -0.13845421 0.14790496
-0.12749462 -0.36830962 0.12825450
-0.21674925 -0.20942037 0.12908989
-0.00278025 0.04574513 0.15141684
-0.13601069 -0.14213946 0.15212908
-0.21163923 0.04170702 0.14941081
0.07974470 0.28791142 0.16734526
0.24442452 0.22156672 0.12631406
0.16261695 -0.25018531 0.15672612
0.01001852 0.06965362 0.05492178
-0.00442070 0.30550188 -0.09828217
-0.06506755 -0.08095016 0.15163223
-0.10077398 -0.28581348 0.06677963
0.13670735 -0.13575606 0.15532333
-0.12165084 0.30849510 0.09066917
-0.05728763 0.39113951 0.14698121
-0.12746474 -0.26707265 0.09813461
0.08238108 0.20473690 0.14824088
0.04100618 -0.25097311 0.14520495
-0.09646608 -0.13721363 0.14238846
-0.16236410 -0.12163226 0.15588534
0.11205798 0.09514876 0.15351059
-0.12407052 -0.21590963 0.14829706
-0.08528991 0.05343589 0.15404284
-0.16630197 -0.27963418 0.11262301
-0.17214547 -0.00978237 0.14799143
0.19702044 0.16375220 0.13616204
0.01782757 -0.12958457 0.06934776
-0.19017434 -0.26011461 0.13860889
0.13020349 0.11210750 0.15161431
-0.21574514 0.14165267 0.13107008
-0.18807971 -0.19587089 0.15031722
0.06134780 0.29734755 0.06568592
-0.10575721 0.31031215 -0.07438813
0.06705869 -0.07166946 0.14597522
0.14733899 -0.07337211 0.14735308
0.06239328 -0.04775533 0.15337487
0.17118242 -0.01951023 0.12405758
0.12457965 -0.17615029 0.12397788
0.09435859 0.09158657 0.13027675
-0.11897659 -0.24505663 0.14797355
-0.10302591 -0.01368565 0.14798398
0.03886258 0.01806290 0.14480436
-0.16557550 0.12371796 0.15174377
-0.16366842 -0.13996853 0.15024370
0.07939015 0.10637986 0.15301609
-0.25071654 -0.24315125 0.12912013
0.20575738 0.27705854 0.11994438
-0.03558828 0.36941129 0.15692213
0.12825671 0.30552477 0.14854638
-0.06074142 -0.29526883 -0.12786709
0.02593051 0.05348460 0.14002267
-0.19678575 -0.09429252 0.13735174
0.07290672 0.26693800 0.12673908
0.07644363 -0.06451178 0.14814776
-0.03361612 -0.09357820 0.12590905
-0.17561907 0.10045239 0.13687393
0.13416366 -0.31369373 0.13960694
-0.16836026 0.30998510 0.13965632
-0.00769034 -0.21356668 0.04730666
0.04663350 -0.31128171 0.15043119
-0.04075352 -0.33588338 -0.01360714
-0.05532323 0.15313733 0.14488308
-0.03581538 -0.29493803 0.14725019
0.01131966 -0.18137327 0.13968349
0.12616988 0.32356921 0.14715588
-0.09153213 0.33178669 0.14439750
0.10002501 -0.28513783 0.14148414
0.01598502 0.14236583 0.13603136
-0.15741573 -0.34714597 0.14007661
0.05164904 0.21556616 0.14091408
-0.18345195 0.21187669 0.14941889
0.10655248 -0.13860957 0.14356515
0.03445455 0.23290721 0.14746910
-0.01592156 0.04558945 0.15164949
-0.16991916 -0.11377566 0.15779740
-0.14734405 -0.25423914 0.11421379
-0.23293886 0.06492395 0.13308039
-0.03957845 0.14004853 0.15186207
0.11467955 0.13081799 0.13815562
-0.11716018 0.34137744 0.14400147
-0.18114445 -0.07462002 0.15011340
0.08505897 0.27086580 0.14048456
0.14534591 0.26910305 0.15069346
-0.18323103 0.28462771 0.14849369
0.15558913 -0.26646274 0.13219440
-0.15539174 -0.16246659 0.15309361
-0.15308204 -0.08815655 0.12619442
0.08514960 0.26956069 0.13673452
-0.07638937 0.01330067 0.14367226
-0.02814838 0.03631792 0.14788494
-0.00667627 0.19907503 0.06311671
0.05473480 -0.25333685 0.15407147
-0.14035359 -0.32266465 0.11062942
0.08282234 -0.37401420 0.14762154
-0.02466336 -0.23467518 0.12984732
0.15792707 0.32747716 0.11320743
-0.07502654 -0.02205442 0.14639387
0.06709158 -0.25802851 0.13469009
-0.11806238 0.39155424 0.14080514
0.04431343 0.32868892 0.15958883
0.17007272 -0.32141912 0.13456233
-0.02899817 0.31479919 0.15566158
0.17221847 0.29577601 -0.03793068
-0.11482290 0.30955374 0.08455734
-0.12971888 0.09729566 0.13417810
-0.13066912 -0.10337844 0.14644563
0.08360261 0.29871202 0.07708220
0.15611887 0.37965882 0.15382837
0.01803477 -0.30302164 0.06285739
-0.18887186 0.35588667 0.12825741
-0.18610135 -0.31126624 -0.13468270
-0.17986499 0.40503395 0.14514540
0.07733978 -0.01853100 0.14987217
0.00665723 0.36742303 0.15206172
0.01880303 -0.15458193 0.14982447
0.11243382 -0.02689976 0.13463096
0.15268540 -0.26419547 -0.12370162
0.16492824 -0.31021559 -0.12337340
-0.04662310 -0.33184257 0.14173278
0.07653329 -0.23610255 0.14945146
-0.09390752 -0.05634718 0.13525157
-0.19191878 0.16642833 0.14253870
0.03984550 0.01243198 0.15536340
-0.14102890 -0.31505525 0.11119492
-0.12807906 -0.30196372 0.16222140
0.10363829 -0.01079025 0.15066063
0.03300752 -0.28094149 0.10936116
0.04415847 0.35013500 0.13383955
0.02167058 0.14169618 0.14669274
0.12854284 0.32204965 0.13374871
-0.06059826 0.36256188 0.14346504
-0.06552704 0.16090786 0.14029063
-0.10595673 -0.34422541 0.14325713
0.02104661 -0.18527782 0.15106903
-0.01545630 0.02973139 0.14615613
0.10203869 0.28961796 0.12753069
-0.14971620 -0.19296530 0.15024304
-0.24491663 -0.22014251 0.10995740
-0.07672824 -0.05299359 0.14448631
-0.24188042 0.03506931 0.15469719
0.00231922 -0.08295133 0.07907358
0.03790830 0.01574352 0.15261325
-0.16853587 -0.00560279 0.15112862
0.21865992 0.26023352 0.13635352
-0.17696692 -0.12823476 0.15043576
0.04652262 0.31858629 -0.09161240
-0.07624687 -0.32468414 0.11990206
0.07724907 0.32676724 0.14735159
0.00713316 0.01138945 0.14412637
0.08683160 0.09700941 0.15326829
-0.02618222 -0.04278450 0.14244007
-0.10390989 -0.07206500 0.14554849
-0.09128688 0.05376350 0.14795129
0.14006802 -0.12955949 0.14146414
-0.08716179 -0.13345021 0.13847490
-0.12856628 -0.29320779 0.10929081
-0.05633651 0.07764551 0.14648245
-0.10602283 0.05739075 0.16236654
0.14197391 0.27266070 0.11547238
-0.20041226 -0.18282096 0.14804412
0.08559851 0.26110303 0.15397304
-0.22548109 0.02802078 0.12485112
-0.01048988 0.31801102 0.13764833
0.05096927 -0.22412317 0.14206263
0.08876905 -0.14467272 0.15679955
-0.00621488 0.04574564 0.14120366
0.00714304 -0.31498027 0.15086195
-0.11763730 -0.31606209 0.02477236
0.12340154 0.35168970 0.15586247
-0.20456268 -0.16055280 0.15644789
0.17739670 -0.29606962 0.13567887
-0.04286050 0.30472532 0.14628465
-0.12052095 0.08688440 0.15468948
-0.17244682 0.09678155 0.15081577
-0.12129797 -0.33791459 -0.03716625
-0.07057394 0.20980375 0.14745364
0.05157162 0.31606278 0.06903802
0.07617885 -0.17606869 0.13555837
0.06977825 0.02164519 0.15322831
-0.09955750 0.16877170 0.15142490
-0.14525267 0.09625678 0.14876163
-0.06331971 -0.22827153 0.14716212
-0.14502175 0.28350362 0.07436930
-0.17486469 0.27213949 0.11826375
-0.14002943 0.26847759 0.10065710
-0.11454234 0.12759095 0.13171600
-0.11432315 -0.23012826 0.15229806
0.25543761 0.02412938 0.14316006
0.04248004 0.18055132 0.12936856
-0.01568290 -0.23230803 0.14303520
-0.12216758 -0.32902718 -0.13397065
0.10549574 -0.12490345 0.13682598
-0.08311640 0.31788132 0.13285255
-0.15781900 0.27624440 0.14646418
-0.10609913 -0.34689313 0.15261492
0.09170212 0.09001890 0.14705037
0.11407688 0.14698136 0.14840336
-0.16086224 -0.26850030 0.14796540
0.05132385 0.03687834 0.14712331
0.14645402 0.20997491 0.14163940
0.10424268 -0.10789424 0.11656398
0.06605873 -0.35830814 0.13821667
-0.14411798 0.12504764 0.14520857
-0.16165870 -0.29855174 0.15857077
-0.21949172 -0.01712647 0.14883243
0.13407610 0.07934375 0.14820337
-0.05034051 -0.07196289 0.14662844
-0.11387047 0.02912212 0.15732890
-0.13065967 0.26194629 0.14823043
-0.11474289 -0.31831864 -0.01129959
0.05248256 -0.12541002 0.13007054
-0.00514258 -0.24334683 0.14185230
-0.14533773 0.18993987 0.14608128
-0.03521284 -0.24311335 0.12505731
-0.02740768 0.07560837 0.13337064
-0.11486894 0.11594075 0.14647783
0.16144732 0.07596739 0.15343305
0.07090609 -0.26715276 0.14758028
0.11932528 -0.05760501 0.14300036
0.04100639 -0.18763867 0.13720548
0.00231636 -0.02211431 0.14360915
0.12852041 0.29223073 0.14403823
0.17058435 -0.12384458 0.13873304
0.15042317 -0.13803473 0.15086165
-0.15080777 -0.14652780 0.11479978
-0.08539192 -0.10817691 0.13737774
-0.09816623 0.38124466 0.14281765
-0.14851934 0.07110089 0.14364055
-0.01846639 0.25955924 0.11364122
-0.00163101 -0.12359685 0.13649538
0.02741574 0.22539125 0.15998001
0.06227072 -0.14220814 0.13666090
0.12917009 0.22758715 0.14018674
-0.12257808 0.29700980 0.13785279
0.23083350 0.03116760 0.15013340
0.10234329 0.04834352 0.13926883
-0.08530510 0.25337186 0.13742594
0.02369881 0.07222927 0.15051334
-0.08677769 -0.15816207 0.15368110
0.02744592 -0.36792180 0.13548556
-0.01443106 0.40094426 0.13562684
0.00291927 0.04010513 0.03331956
-0.10876499 0.17385647 0.14861281
0.05044251 -0.16369441 0.14903064
0.12027439 -0.33467978 -0.13265511
0.09217502 -0.32167321 0.12666689
-0.17441082 -0.33622769 0.13638778
0.06215606 0.10542253 0.14776623
-0.11230208 0.29378420 0.14969260
-0.00087994 -0.17371021 0.15006119
0.04737404 0.02128094 0.15102106
-0.08942263 -0.10078496 0.15297845
0.00213100 0.37082994 0.16933268
0.03062512 -0.16015378 0.13686949
-0.18863302 0.27854505 0.12388213
-0.15891686 -0.33484992 0.13828020
0.02814069 -0.24224652 0.15496972
0.09486477 0.01393055 0.14940184
0.05176419 -0.30607510 -0.08428238
-0.11315631 0.23157309 0.14854629
0.07952253 0.18325236 0.15251616
-0.18659613 0.24847652 0.11319804
-0.21063884 -0.12646718 0.15132514
-0.03083125 -0.29184994 -0.00024895
-0.23973347 0.17487326 0.15559092
-0.15096107 -0.33451989 0.11407144
0.09286309 0.21831229 0.13649143
-0.05525837 -0.28619432 0.13330263
0.14863318 0.16575205 0.14264137
0.13999122 -0.09763095 0.11820284
-0.24125049 0.15687820 0.12324024
0.02361810 0.22295666 0.09752823
-0.01584515 -0.30476198 0.11670792
-0.13167098 0.31008172 -0.04360821
-0.16635250 -0.08619493 0.14488193
-0.04066779 -0.03975645 0.15014741
0.03511925 -0.36953253 0.13675207
-0.00817396 -0.19804171 0.03393244
0.22152284 0.09250943 0.13404098
-0.16453810 -0.07758606 0.14845158
0.09088503 0.34665978 0.15942936
0.02252695 0.27128583 0.14667489
-0.06168608 -0.25110722 0.11951653
-0.13280314 -0.29926345 0.14767651
0.04021202 0.31556171 0.14722794
0.13827731 0.31373504 0.08958967
0.03467421 0.21747237 0.13007653
-0.14363633 -0.12408462 0.14953548
-0.05467958 -0.00253518 0.15050818
-0.09265745 -0.11390491 0.15415233
-0.04459024 -0.24952987 0.14770335
0.12159543 -0.27038980 0.13978656
0.17311402 0.00682746 0.14296795
-0.14030822 0.28655308 0.11900869
0.02241341 -0.10889098 0.14508048
-0.07228494 -0.34581763 0.15137340
0.03676182 0.30944687 0.14413074
0.15501586 0.17527366 0.14546473
-0.09247299 0.22919485 0.14663491
0.08093527 0.01527146 0.15228921
0.11420102 0.00471292 0.13669017
-0.01712199 -0.04201053 0.13172156
-0.20042904 0.04646960 0.13521694
-0.01702450 0.34745061 0.14969882
-0.04092523 0.11367737 0.14404592
-0.05526636 0.38773423 0.12421344
0.13769689 0.18743353 0.14793120
-0.03958288 -0.28122506 0.14462647
-0.13883390 0.05336332 0.15792708
0.07730484 -0.36795571 0.14719126
-0.07606229 -0.27822736 0.14000745
-0.00086171 0.24535868 0.15220784
-0.10056733 -0.31749862 0.13591330
0.07969470 -0.32371420 0.15093565
-0.12926297 -0.21669158 0.15586627
0.11037602 0.18878162 0.15015791
0.10854173 0.01595138 0.11901952
0.05287087 -0.18026808 0.14664215
-0.16797392 -0.11811626 0.14894490
0.08994486 0.30001789 0.11746098
0.12230851 0.26135772 -0.05387931
-0.21335222 0.12462920 0.14459291
0.15193519 0.02536338 0.13732076
-0.00350345 0.27112713 0.12025462
-0.21327147 -0.26314434 0.14703429
-0.13227326 -0.32926539 0.06304304
-0.16832930 -0.33073342 0.14650214
0.07495212 -0.05810510 0.14914930
0.11488847 0.16357906 0.11913057
0.16150019 0.10902570 0.13729140
0.05083837 -0.08699349 0.14998420
-0.16301997 -0.01123448 0.14369798
0.05325423 0.27900249 0.16121700
-0.00620179 -0.29185954 0.14449963
0.15681997 -0.31012428 0.10159571
0.00558890 0.29630804 0.15866479
0.01339777 -0.01991119 0.15107073
-0.09526861 0.20723081 0.13738444
-0.22222252 0.13183621 0.15085040
-0.06716014 -0.01823384 0.11864568
-0.18224078 -0.11764090 0.15851060
-0.04776852 -0.20967884 0.14845452
-0.08897877 -0.32075125 0.03049291
0.14235091 -0.23202486 0.14565285
-0.07029372 -0.13316891 0.14049184
-0.04152926 -0.12534380 0.14541380
0.10739927 0.31190902 0.13912007
-0.19910042 0.39356250 0.13964728
-0.21161869 -0.08340630 0.13992326
-0.06875472 0.26147690 0.14301455
-0.05561476 0.30033180 0.15674773
-0.08561406 -0.35886472 0.14848788
0.04283527 0.09654471 0.15108411
-0.13618630 0.33213040 0.14930090
0.10315806 -0.25782338 0.14018673
-0.25619811 -0.19171175 0.14708714
0.16485858 0.24046391 0.14143565
0.16600820 -0.14903605 0.15073331
-0.16727072 -0.24180295 0.12333009
-0.20360644 0.18362443 0.15282801
0.19531533 0.27600762 0.13833280
0.10749963 0.19226888 0.14912073
0.07227504 0.15151343 0.14392990
-0.09095851 -0.21885091 0.15393768
0.01747109 -0.20703217 0.14684646
0.08425050 0.03268592 0.13311577
0.10834298 0.29723331 0.13752383
0.25510454 -0.02566459 0.13950196
-0.20785895 -0.26338935 0.14961450
-0.11349536 -0.04992015 0.14871109
0.01706745 -0.19696881 0.14979888
0.01966443 -0.02323830 0.14632532
-0.15771097 0.15677342 0.14980669
-0.13539259 -0.30954272 0.14016241
-0.17619459 0.34308809 0.15106474
0.11078399 -0.12316240 0.14194334
-0.14566290 0.21935345 0.14911333
-0.07485536 -0.18385714 0.14622566
-0.08513817 0.29538161 0.08329894
0.21840778 0.09887989 0.13505787
-0.07248453 -0.36406010 0.15155566
0.02153161 0.07714547 0.14344278
0.09387984 0.09487648 0.15085788
0.02371603 -0.14078397 0.13916777
0.04619060 0.29075399 0.14947242
0.13421828 -0.34661353 0.15287903
-0.19959563 0.23451708 0.16333145
-0.19314979 -0.07832397 0.12213710
0.00613232 0.15223974 0.07772538
-0.13379593 0.05265798 0.14801484
-0.04938074 -0.27203438 0.15493588
0.20466506 0.04221746 0.13294090
-0.00814293 0.32367975 0.13736692
0.02452132 -0.22495487 0.01499855
0.01705445 0.27831477 0.14802824
0.09725146 -0.10423737 0.14212409
0.02192064 0.28617176 0.08485048
-0.02140647 0.19906554 0.01963212
-0.22757457 -0.31030712 0.15358630
-0.14750049 0.25544840 0.15562679
-0.08150153 -0.02345601 0.14289154
-0.14790028 0.20874038 0.14899787
0.12366756 0.31939077 -0.10850122
0.14083420 0.11059990 0.12232272
-0.07371792 0.12710959 0.14864677
-0.08801478 0.29069340 0.14235701
-0.06187204 -0.17466423 0.14835782
-0.12423845 -0.03451189 0.14947426
0.21005273 -0.21284616 0.14733362
0.09937249 -0.36148265 0.11065918
-0.11053519 -0.34548521 0.14618726
0.00756429 -0.37548029 0.11978904
0.10591538 -0.30247623 0.05911945
-0.18571129 0.33125669 -0.11936666
-0.11310790 0.09269420 0.13300127
0.13672617 0.20812503 0.12994650
-0.21313150 0.00815010 0.14253871
-0.15378368 -0.36246514 0.10624380
-0.21589434 -0.06775939 0.15714018
0.10669596 -0.29953343 0.12211483
0.01982433 -0.06538680 0.14869258
-0.15125617 -0.11656378 0.14445984
-0.04353386 -0.35213125 0.14168566
0.03944658 -0.08524380 0.14560890
-0.23758152 -0.26012328 0.13033749
-0.09297732 0.08995464 0.12155865
-0.19006616 0.23668966 0.14607315
-0.13201001 0.08732421 0.15401134
-0.09546639 0.28056392 0.14444411
-0.16169707 0.18056452 0.14165339
-0.03391225 -0.34917891 0.14820802
0.00576238 -0.14831936 0.10383498
0.24565968 -0.20839532 0.12581344
0.03873300 0.29428142 0.12859046
0.00919709 0.28798720 0.12685147
-0.17274413 0.27829841 0.16068855
0.04513596 -0.02592477 0.14667027
0.04273838 0.11297101 0.14675532
0.10742835 -0.17221151 0.15091412
-0.08533555 -0.28668228 -0.01106084
-0.04605274 -0.22490722 0.14463861
-0.07751702 -0.28663591 0.14155699
-0.16384970 -0.24471582 0.13051584
-0.15226290 0.12699634 0.13235375
-0.19749719 -0.15404040 0.13401261
-0.04426118 0.14835513 0.15497082
0.09336010 -0.06310572 0.15255348
-0.15160450 0.18923630 0.15037146
0.08619665 0.30310214 -0.04297661
-0.21354415 0.11888264 0.12475059
0.01206352 -0.29558077 0.10779913
0.22837538 0.09038352 0.15094514
-0.11548051 0.05357497 0.14428958
-0.02395826 0.13504018 0.12535459
0.03445026 -0.31245586 0.11357573
-0.15289995 0.28219399 0.07797486
-0.13157758 0.28357023 0.15438655
-0.01229851 -0.23573683 0.14989796
-0.03735525 0.03878985 0.15692216
0.11658945 0.18064635 0.13653910
-0.00726618 0.17380300 0.11071320
-0.01671889 0.13819496 0.07201381
-0.00025161 0.26688185 0.15635633
-0.00141156 -0.20710453 0.13886875
0.16581625 0.28217554 0.15332800
-0.05976282 0.29423812 -0.01300331
0.15500629 0.23798046 0.15040781
-0.02671092 0.04810029 0.15384181
-0.24922311 -0.03012994 0.14578231
-0.03889626 0.24731678 0.15150146
-0.27065051 -0.26303366 0.14753623
-0.00264843 0.02078336 0.15668465
0.07141345 0.39904559 0.12705475
0.14479679 0.27904996 0.05890646
-0.02202914 0.27527437 0.14604719
-0.12173672 -0.02215526 0.13251139
0.18786383 0.33748591 0.13159966
-0.12193243 0.37544763 0.15020901
0.03735432 -0.30849138 -0.07154164
0.04790771 0.25417536 0.14685404
0.10221808 -0.23578218 0.14785661
-0.03957688 -0.14231989 0.14557961
-0.15325293 -0.00315181 0.14579690
0.03170342 -0.07682002 0.14839160
-0.12517211 0.18861955 0.14809702
-0.02808900 -0.06369239 0.15028557
0.03996591 -0.25777495 0.14886394
-0.12512380 0.33940390 0.14696182
-0.17374668 -0.20346570 0.14336620
-0.17770925 -0.03695383 0.15006763
-0.12547797 0.02355622 0.15067911
0.13755609 -0.30682501 0.15671553
-0.14546166 0.18838850 0.15245184
-0.24199373 0.25786042 0.15161923
-0.18845588 0.25060409 0.12746888
-0.21332285 0.25193855 0.14402522
-0.00421562 -0.35816902 0.14667256
0.10690847 -0.16158342 0.14049959
-0.03716692 0.09612182 0.15076596
0.15083681 0.17703658 0.13650857
-0.18718256 0.06239559 0.14992586
-0.10885794 0.19786495 0.14244497
-0.05849021 0.40170735 0.14405793
-0.19542518 0.31103557 0.13449985
0.16865547 0.05531766 0.13036853
0.09211060 -0.30782124 0.11417839
-0.07612299 0.14277726 0.14799772
0.03552531 -0.14064050 0.15140291
0.03989354 -0.37164086 0.14693762
0.07369000 0.32841033 0.15048619
-0.06225141 -0.11208065 0.14988668
0.03279782 0.33116513 0.13654895
0.02453859 0.08975567 0.15037870
-0.06138852 0.13781293 0.14357843
0.15995489 0.07112190 0.13200408
0.13866170 -0.28702125 -0.03612228
-0.03926746 -0.04658180 0.13575236
-0.15737987 0.24573116 0.13327047
-0.10956925 -0.34807539 0.15607752
0.15486264 -0.25794858 0.13260524
-0.05491939 0.09431298 0.07077426
0.22404571 -0.03555568 0.15154485
-0.13568045 -0.30035299 0.13672152
0.00665025 0.09173143 0.14337140
-0.13777614 -0.14893778 0.14667553
-0.03530244 0.06959137 0.13803026
-0.16262782 0.33259821 -0.09777185
0.05319016 0.30868313 0.14782907
-0.01163916 -0.23068532 0.15661122
-0.18002677 0.25886387 0.15375370
0.19038099 0.18080856 0.14989662
-0.08764038 0.14475933 0.15424091
-0.16059493 0.32341361 0.05601644
0.00321244 0.23656580 0.14902969
0.10569271 -0.26014376 0.15389976
-0.18677485 0.23577628 0.15269838
-0.03469292 -0.30439955 0.13921422
0.09430672 0.30507761 -0.10579040
-0.02051245 0.33752230 0.12679806
-0.21623169 -0.15948652 0.12615266
0.09749968 0.01300085 0.14544611
0.07105930 0.31688032 0.15442419
0.07171078 0.29817444 0.10962588
-0.16268444 0.31968838 0.11849566
-0.04106380 -0.28949529 0.05128106
0.11851610 -0.14550333 0.13807195
-0.16664630 0.02271720 0.11648236
0.07824482 -0.32480252 0.06051137
-0.09055084 0.06232683 0.15064733
0.13232699 -0.24357957 0.14942405
-0.13454089 -0.21409988 0.15355763
0.14645000 -0.04387277 0.15657870
0.16003102 0.03890409 0.14946984
0.11696081 0.11753264 0.15315044
-0.20525995 0.02279345 0.11448352
-0.02516817 0.12488464 0.15448037
0.08261395 -0.07887112 0.14257129
0.09641436 -0.05212592 0.13690259
-0.16316967 0.02282114 0.15264553
-0.09877953 -0.06368133 0.15474762
0.09843060 -0.32605305 0.14587396
-0.01106014 0.33316574 0.12821615
0.06989602 0.31253409 0.13181150
0.00392863 0.26414815 -0.02583183
-0.08998927 -0.30672872 0.09394681
0.11658876 0.23965102 0.16010553
0.13801245 0.15242918 0.14838240
-0.15326488 -0.30880326 0.14711139
-0.17314306 0.20793770 0.12439888
-0.01048567 0.13034920 0.13996053
-0.19825417 -0.32102376 -0.09732416
0.08613569 -0.06018115 0.15044312
0.13814668 -0.14927815 0.12490599
-0.18726021 -0.32091039 0.14957879
0.01958763 0.36362362 0.13392705
0.08792882 0.22483440 0.11017377
-0.18759179 0.27705404 0.14775012
0.10796233 0.05972356 0.14319563
-0.02876699 -0.10440122 0.15247519
-0.07330948 -0.04926566 0.14847752
-0.04345717 0.16485047 0.12336438
0.01861861 0.14848997 0.02414320
0.09652944 0.31622350 0.07603555
0.18018138 0.00854568 0.13773444
0.02713154 0.26120800 0.14669901
-0.14792839 -0.32196069 0.07400677
0.09413926 0.11662419 0.13750046
0.16156702 -0.21884504 0.13608907
-0.04469299 -0.35549122 0.14032885
-0.00242045 0.35114470 0.13941571
0.00425197 0.08596253 0.13733390
-0.03346809 -0.03116470 0.14982413
-0.01836485 0.29240483 0.14554703
0.14822847 0.05008103 0.14428446
-0.19399686 0.29170206 0.15243508
-0.12646531 0.31253341 -0.02828496
-0.07501036 -0.17719229 0.14907600
-0.20670837 0.03736454 0.12972453
-0.04539886 0.29312709 0.13775563
-0.05046289 0.33165890 -0.12970448
0.06093311 0.12351944 0.03159096
0.07104068 -0.21432355 0.14689499
-0.16562347 -0.15882967 0.14860135
0.02942335 0.08447232 0.15148546
-0.00978166 -0.24786770 0.14089842
-0.01548785 -0.07585441 0.14148442
-0.15625079 0.26770791 0.15444414
-0.00852375 -0.02970888 0.14956817
0.16589181 0.22941078 0.13360226
0.05200942 0.21969086 0.15078346
-0.22235377 -0.20246567 0.12697919
-0.16077507 0.20753559 0.14983536
0.08714373 -0.33000451 0.12421114
0.09358169 0.24261606 0.11514427
-0.14525969 -0.10043100 0.15426293
-0.03853236 -0.13581067 0.05167247
0.08517152 0.21396309 0.14646785
-0.24452582 0.24353611 0.13693193
0.05581350 -0.18172917 0.14422479
-0.25665385 0.08032058 0.14890879
-0.18605015 0.33601925 0.15451662
0.04035416 0.13225669 0.13503365
-0.02445456 0.01984361 0.14073804
-0.15789858 -0.03823600 0.15429191
0.02673741 -0.08706537 0.05822370
0.04406188 -0.03646842 0.15048623
0.07563893 0.19015858 0.14360926
0.00507818 -0.21348153 0.15303110
-0.22078261 -0.00844378 0.12883271
0.04751741 -0.08044007 0.14572139
0.15785915 0.16599984 0.15135178
-0.01857045 -0.17746630 0.14898103
-0.01604962 -0.29751998 0.14966011
-0.02628827 0.26864141 0.10366052
0.11042663 0.25906268 -0.11908065
-0.21208309 -0.19934016 0.15556428
-0.18079746 0.10956068 0.12117451
0.07902151 -0.38508123 0.11793576
0.05902382 -0.20921914 0.14252959
-0.18606374 -0.08219752 0.14024064
0.04342071 -0.13543002 0.15414725
0.11615404 -0.26980892 0.15254295
-0.08960497 -0.06935336 0.14510027
-0.06825353 -0.21454552 0.15576856
-0.04150193 0.11729214 0.14724277
-0.05986921 0.01973750 0.14652056
0.03734146 -0.02429970 0.16251293
-0.18844655 -0.27624777 0.11623780
0.18000987 0.13175318 0.14535040
0.07201008 -0.16083536 0.13441017
0.02378894 -0.22501825 0.10390902
0.07155553 -0.02354399 0.14616667
-0.14859028 0.01292146 0.14440592
-0.21519175 -0.20297429 0.16527864
-0.15751955 -0.19918011 0.13763416
0.00693532 0.32576102 0.15302014
0.03205428 0.03070313 0.14476009
-0.20207295 -0.15043257 0.14542089
-0.17238733 -0.01562341 0.14633346
-0.23386253 0.37439558 0.12889723
0.07480925 0.05963388 0.14022332
-0.15859751 -0.26979107 0.15256070
-0.07003181 0.30183050 0.14345974
0.16652715 -0.28167579 0.14657240
-0.13160662 -0.07638583 0.15359169
-0.02028513 0.19751315 0.14464279
-0.11340525 0.06481721 0.14914474
-0.16493586 -0.32176203 0.12725872
-0.07365155 -0.11673099 0.15450422
0.14547521 0.18206204 0.12058345
0.03125724 -0.09754962 0.13261086
-0.08319804 -0.17057222 0.13746232
-0.12130418 0.30919778 -0.03662649
-0.07375754 -0.02996015 0.14967464
0.00589918 0.16419201 0.14107035
0.02695603 0.26804513 0.14619544
-0.02729004 -0.25278342 0.15301690
-0.00776967 0.10057590 0.11942904
-0.22625534 0.11580594 0.13905668
0.08799909 0.13919616 0.14940029
-0.07398775 -0.00413997 0.13999350
-0.20562193 -0.26543224 0.11997929
0.05354822 0.29296753 -0.00343822
0.05102763 0.38877231 0.15298730
0.09824678 -0.14365733 0.13894245
-0.10815063 0.00175865 0.14242341
0.04789877 0.19522563 0.13639884
-0.20704749 0.10860652 0.13802932
0.03675508 -0.21429265 0.14773139
-0.17266724 0.26022691 0.14466326
-0.08986802 -0.20792617 0.15086626
0.02917638 0.27615708 0.13887835
-0.13881573 0.09559132 0.14344746
0.13288751 -0.19579777 0.14670250
-0.13444704 -0.28177097 -0.06393863
0.03441155 -0.05353782 0.14506145
0.15849850 0.22314765 0.13405718
-0.02202595 -0.22928655 0.15004136
-0.00719642 -0.20327276 0.05430280
0.14332257 0.11869573 0.14324464
-0.06088633 -0.17578840 0.14213961
-0.10327426 -0.26659808 0.11686090
-0.12039830 0.29927427 0.10049943
0.02822103 -0.31621599 0.10859986
0.09572348 0.30883145 0.10913034
0.08718374 0.15012416 0.11756032
-0.02122018 -0.01671041 0.14225090
0.07706805 0.06907032 0.14063764
-0.02536171 0.11146498 0.02036059
-0.03400205 -0.00716812 0.14474443
-0.09844311 -0.04045977 0.12669253
-0.08585766 -0.31125692 0.11780170
0.09812029 0.28778136 0.15179747
-0.09126399 0.30819124 0.12111012
0.14192140 0.05192172 0.13514170
0.04480997 0.31428066 0.00154597
-0.04483978 0.01333952 0.16647758
0.19655327 0.26242763 0.18584013
-0.14628434 0.13823432 0.15207037
0.06535744 0.02853549 0.14116807
-0.20517600 0.12828876 0.15962960
0.15874580 -0.04363394 0.14143105
-0.00274601 0.40141258 0.14042884
-0.10411409 0.02526864 0.15024643
0.18414471 0.27609265 -0.14687827
0.15373972 -0.01469162 0.14660241
-0.00548403 0.09910148 0.13066289
-0.07728480 -0.07453735 0.14952394
0.01916809 -0.24998719 0.15120056
0.13688417 0.22366498 0.14972727
-0.10265665 0.28547627 0.15517028
0.09300859 -0.26688674 0.15324835
0.09528036 0.02063915 0.14237663
0.09711641 -0.33727205 0.14541161
0.03708604 -0.20398428 0.13198717
-0.20748824 0.14841425 0.13672441
-0.07744347 0.35257566 0.14847466
-0.01789571 -0.35548034 0.00852726
0.00615938 -0.23124346 0.14831309
-0.00687359 -0.37893343 0.13991907
0.05730353 -0.29360220 0.11580557
-0.11193198 -0.31664568 -0.02983778
0.14445965 -0.23979773 0.14706932
0.15320951 0.34473962 -0.12900601
0.12206446 -0.30638033 -0.10420594
-0.18820533 0.19213840 0.14490424
-0.02771356 -0.39762586 0.14538068
0.14937095 0.00494732 0.14744891
0.17649844 0.15318494 0.15490392
0.01596719 0.21999809 0.11518436
-0.03546045 -0.20757270 0.14963841
-0.13501655 -0.19508836 0.14525661
0.22872365 -0.17655548 0.13835135
0.00463476 0.32852033 0.16323863
-0.03816459 -0.25736275 0.14837958
-0.07441048 -0.37152654 0.16119422
0.15352044 -0.03940578 0.14643565
0.03587802 -0.12072097 0.14662611
-0.07161171 0.08828864 0.15038988
-0.21092759 -0.32351112 0.15181622
0.15904000 -0.34092039 0.12199368
-0.19156703 -0.20592293 0.14814542
-0.01779490 0.22087389 0.02446471
-0.07192060 0.25269523 0.15674971
-0.03114836 -0.19221656 0.07792673
-0.05715039 -0.28784198 0.03442755
-0.00644179 0.12067658 0.12490873
-0.22906944 0.06035795 0.14491878
0.09136176 -0.00844101 0.10995720
-0.15089770 0.31080699 0.14862788
-0.06371112 -0.24383199 0.14794044
0.08060133 0.22953223 0.13351569
0.14523640 0.14187285 0.15724343
-0.22933260 -0.09312279 0.15317556
0.07907197 0.14588042 0.12544668
0.02390196 -0.28386313 0.15790667
0.02238829 -0.17226750 0.13578646
-0.09356984 0.10496317 0.14244235
-0.05650165 0.13834246 0.13479204
-0.17875180 -0.24578126 0.15163572
-0.14315310 0.30125988 0.13249357
0.00393964 -0.02725233 0.14100012
-0.08918037 -0.02553229 0.14480260
-0.23197953 -0.04814504 0.13333343
-0.21311161 0.02382015 0.13795286
0.14677359 0.33306757 0.11382053
-0.03133603 -0.17596915 0.14397635
0.11454330 0.20795536 0.14363554
0.07195096 0.20081908 0.15839192
0.00826849 -0.06578152 0.11916418
-0.16536266 0.32559583 -0.01127879
-0.02804727 -0.23799914 0.03924617
-0.14163968 0.18650363 0.14153774
-0.09247987 0.26504129 0.14892930
0.12514327 -0.01896542 0.15270352
0.15759379 -0.25766194 0.13402307
0.16702516 0.12189435 0.14165550
-0.09978085 0.02342464 0.15187126
-0.18744318 0.35538310 0.15012008
-0.17234805 -0.19227503 0.14307907
0.15469199 -0.03885471 0.14395921
-0.18020457 0.23304889 0.14507188
0.18278933 0.02540503 0.11236174
0.01240739 0.01497204 0.13545024
-0.19586253 0.02618558 0.13065186
-0.15231997 -0.02414559 0.15802142
0.18572789 -0.26605707 0.14885515
-0.14029616 -0.28409356 0.12398671
-0.13979159 0.24335691 0.14697692
0.12167505 0.06504968 0.14839748
-0.19526659 -0.23355347 0.14855561
-0.13938215 0.35087824 0.14995584
-0.13940020 0.22154607 0.15900700
-0.14421211 -0.11942612 0.15150398
-0.23783320 0.31580767 0.13094293
0.09147024 0.17460026 0.14215977
0.05244955 -0.12744275 0.05582331
-0.05260150 -0.00704905 0.14554116
0.13122670 -0.22405401 0.15816976
0.09435154 0.15989132 0.13226649
-0.22741152 0.09482566 0.13501464
0.18690631 0.03857905 0.14422612
