1405
-0.11084929 0.12573059 0.18760322
0.13063177 -0.27002206 0.18573527
-0.08345078 -0.11090294 0.17375767
-0.13147998 0.31287172 0.18797912
0.15008810 -0.10553816 0.17606182
-0.22049916 0.10175550 -0.05092730
0.05058146 0.16890569 0.18500017
-0.16746360 -0.14500649 0.18158747
0.04066955 -0.03284538 0.18356259
-0.15747851 0.08612077 0.18174496
-0.00048839 -0.13107590 0.18505433
-0.13535595 -0.03858871 0.17869382
-0.19140466 0.28226784 0.19103226
0.21952288 0.19303340 0.15326035
0.13292563 -0.32122359 -0.06120851
-0.04659534 -0.21487443 0.18606737
0.08617394 -0.07942928 0.17748052
-0.00258716 -0.01411198 0.17165017
0.13607679 0.31684342 0.17537226
0.09413072 -0.28356782 0.18101795
0.07369500 -0.09367286 0.17973180
-0.14828585 -0.23347850 -0.15371674
-0.00843965 0.20336837 0.17808679
-0.21557118 -0.02376881 0.18424332
0.12232395 -0.28128418 0.17016971
0.05973553 -0.17360772 0.18515936
-0.00116858 -0.23400757 0.18475285
0.09676456 -0.02006879 -0.11840189
-0.07770900 -0.02783187 0.18752569
-0.06693826 0.07365173 0.18889196
-0.11892613 0.11359781 0.17743753
-0.04126177 -0.23132201 0.17262310
-0.11129044 -0.00885033 0.17885946
-0.20746309 0.12807918 0.11622509
-0.03257363 -0.00942370 0.18448983
0.08331661 -0.14204572 0.17029107
-0.11423726 -0.32578188 -0.11437538
-0.03351387 0.16050775 0.18383376
0.03005468 -0.12427400 -0.13968822
-0.01891190 0.00794500 -0.12289284
0.03276763 -0.08945224 0.18485920
0.05403115 -0.23658665 0.18513891
-0.08394747 -0.07349259 0.18507916
0.11213973 -0.29686069 0.18274069
-0.04342460 -0.29004508 0.18342184
0.10460352 -0.23617077 0.17977183
0.03781170 0.13809781 0.18523024
-0.02010394 -0.04722364 -0.14223948
-0.11963928 0.22956371 0.19179229
-0.09662277 0.00817876 0.15904640
0.03032405 -0.36209673 0.18731266
0.12130226 -0.17433092 0.18293872
-0.19508600 0.15731227 0.18063569
0.17045699 0.24299483 0.18648845
-0.08550048 -0.09610340 0.18219204
-0.11940908 -0.25652426 0.18303993
0.05696622 -0.07765133 0.18242648
-0.19779755 0.28872615 0.15208207
0.15374859 -0.13267490 0.10375138
-0.02628109 0.18634346 0.18575633
-0.04123763 -0.20959209 0.17103550
-0.05677958 0.30330741 0.18530355
0.22794022 0.07049341 0.15683366
-0.21252128 -0.01928446 0.16849308
-0.11565256 -0.17324173 0.17823212
0.02776511 -0.15176803 -0.01069536
0.03645083 -0.19568552 0.17964032
0.03588689 0.32316306 -0.11796843
0.16637298 -0.22098164 0.15005469
0.04514534 -0.14835417 0.18541580
-0.22126427 0.14769983 0.17216994
-0.13837895 0.15285429 0.18591759
0.04931495 -0.32595137 0.18583126
0.16579476 0.13410237 0.16849411
0.11726879 0.32650197 0.15969308
0.09543772 0.13514748 0.17686123
0.11491133 0.31190187 0.18263496
0.04290691 0.36018708 0.18589392
0.00130438 -0.04602266 0.18852128
0.07238507 0.11698409 0.18411371
0.06785244 0.24285476 0.18674071
-0.02297968 -0.32086432 0.13149658
-0.03888923 0.33735454 0.17732027
-0.21202834 0.29885882 -0.01590143
-0.14231318 0.35474783 -0.13361603
0.01805623 -0.01284585 0.18627582
0.10747750 -0.16561875 0.18357913
-0.17366372 0.00610707 0.18966681
0.12052883 -0.09704295 0.09174450
0.26527607 -0.23509596 0.17388003
-0.02573870 -0.06024373 0.17910716
0.20065941 -0.36157233 0.16104725
0.02762657 0.20536140 0.16330199
0.14280899 -0.00988988 0.17759252
-0.03219192 -0.12648204 0.18386011
0.11186413 0.18508887 -0.13999915
0.12959541 -0.15771672 0.16391742
-0.00713204 0.10990726 0.18090297
-0.21501659 -0.00118183 0.17578033
0.04989928 -0.29746342 0.18611555
-0.09464375 -0.10544749 0.18731828
-0.08851941 -0.00938742 -0.08445355
0.09873448 0.23458272 0.16042766
0.25921255 -0.27777648 0.17304340
-0.23496306 -0.00358247 0.00953318
-0.10734675 0.30747306 -0.11200033
-0.15750344 -0.03928400 0.17537490
-0.17742099 0.13023151 0.02089597
-0.07804666 0.20700032 0.17918916
0.17855182 0.26180193 0.18148816
0.03723979 0.04711309 0.18305889
0.00474783 -0.09811439 0.17331527
-0.17787631 -0.00966449 0.16940294
0.01414280 0.30908725 0.17971399
-0.14032537 -0.27905810 0.18716252
0.03555274 0.25661206 -0.11999164
-0.05169651 0.08315484 0.18364145
0.08160502 0.21864729 0.18872133
0.24645841 -0.04738745 0.11069369
0.25097570 0.12797564 0.17395987
0.09095703 -0.25120282 0.18475042
0.03873947 0.27928552 0.16687587
-0.22010985 -0.20414670 0.18662493
-0.16822700 0.01933788 0.18595500
0.13050880 -0.33806202 0.16513000
0.16949381 -0.30391812 0.09071923
0.11592168 0.22973742 0.17561211
-0.23121333 -0.18793117 0.18867971
-0.04798388 -0.12305860 0.18780893
-0.00220679 0.13424152 0.18410829
-0.18929388 0.19538465 0.00546475
0.18205032 -0.33583522 -0.16091761
-0.09333813 -0.25063172 0.18187204
-0.24987218 -0.04802571 0.17376474
0.05870443 -0.23964155 0.18710893
0.12233946 -0.14276655 0.18780105
0.12284715 0.28908244 0.13407652
0.09242739 0.02634692 0.18040203
0.02764679 0.18213378 0.17551948
0.16114438 0.31805831 -0.07159725
-0.17743462 0.06013473 0.18857473
0.01679524 -0.36286879 0.16300741
-0.06414235 -0.32688209 0.16906291
-0.22688928 -0.07704798 0.16156377
-0.07411429 -0.15234779 -0.09251289
0.01923240 -0.30717945 -0.15288495
0.05358576 0.23998141 0.18303147
-0.18578666 -0.11182874 0.17611298
0.00810450 0.15920201 0.18840504
-0.00219414 0.00682623 0.17207307
0.09238839 -0.21870160 0.06154884
-0.20409763 -0.21799675 0.16298661
-0.24932028 -0.27073157 0.16902491
0.20812978 -0.00796855 -0.10674198
-0.09968304 0.19727635 0.18450744
-0.23574729 -0.00398547 0.16079353
-0.01590399 -0.28670189 0.18560028
-0.01795929 0.17553751 0.18502283
0.04606530 -0.33345246 -0.10582345
-0.16277565 -0.12737711 0.16892974
0.03907339 0.08982540 -0.13899595
-0.03496825 0.13846523 0.18341669
0.05071368 0.03422497 0.18049328
-0.01971789 -0.16532344 0.17909887
-0.18470953 -0.16249764 0.18616416
0.02901142 -0.30058545 0.18343881
-0.22459461 -0.22315396 0.10230435
0.12921995 -0.36924884 0.15939385
0.04404289 -0.30431160 0.17542213
0.10203018 -0.17964499 0.18902315
-0.09653970 -0.10926540 0.18303534
-0.11246762 0.10483854 0.18416765
0.10692210 0.03704749 0.17430399
0.08222679 -0.12664181 0.18511395
-0.06478696 0.00545093 0.19225496
-0.02889043 0.16132255 0.17355363
-0.06102646 0.10890192 0.18599932
-0.03394696 -0.00837470 0.18463704
0.04091849 -0.11246699 0.18987656
-0.11054260 -0.19363655 0.16802262
-0.16921417 -0.00154308 0.18724032
-0.13943721 -0.02199797 0.18463445
0.21771412 -0.06566580 0.16817263
0.15433063 0.32286143 0.04985467
0.14321889 0.26397258 0.16398731
-0.21869922 -0.00668266 0.17883964
-0.19727090 0.03572708 0.18279813
-0.10151190 0.20239006 0.16506149
-0.21981084 -0.14161979 0.17653239
-0.27951363 -0.02662324 0.16711171
-0.17022319 -0.37146997 0.17157619
0.07023302 0.27177635 0.17122279
0.25138906 0.34176272 0.17456585
0.05435863 -0.20760964 0.15651001
-0.04559243 -0.31304517 0.01522733
-0.04351350 -0.27241024 0.18421292
0.10267024 -0.23690623 0.18390982
0.01003595 -0.30494019 0.18245694
0.12313730 0.05575980 0.18088880
0.12404560 -0.07520235 0.18424864
-0.16248372 0.27633050 0.18798701
0.10616230 0.34571981 0.17809276
-0.07837565 0.30021968 0.18022619
0.12908655 -0.05278980 0.17967370
-0.15622857 -0.12190327 0.18337846
0.02498803 0.26807117 0.17430817
-0.09325071 0.31284058 0.18914598
0.10049104 0.31879213 0.16836904
0.08204302 0.23363876 0.18136796
0.23683770 0.30139539 0.17734754
-0.12610820 -0.22313966 0.18104307
0.11693037 -0.32298696 -0.17104326
-0.11426328 -0.21944734 0.18337576
0.17992835 -0.32537353 -0.06185047
-0.22771472 0.18466905 0.17869262
-0.03437884 -0.26969752 0.18341534
0.05102746 0.04936681 0.18432492
-0.06189674 0.07712734 0.18749759
-0.16531113 0.24023296 0.17877363
0.07953122 -0.25549430 0.18910696
-0.21421993 -0.21586362 0.19850621
0.01018711 0.02679534 0.18010105
-0.08073281 0.28230631 0.19047461
0.14068024 0.25402984 -0.12218454
0.03217800 -0.31407839 0.18541026
0.17747140 -0.23229793 -0.11085336
0.13854128 -0.14670460 0.17700514
-0.16135751 0.34127551 0.15932842
-0.12096135 0.07667506 0.18885492
0.06787084 -0.31201160 0.18205501
0.17500423 -0.07934384 -0.13959841
-0.12211277 0.15959527 0.18563138
-0.11311661 0.05087910 0.17815480
0.07685130 0.09677466 0.17202418
-0.13584454 0.10688293 0.18060066
-0.02778486 0.20825952 0.18059196
0.11705985 -0.25054792 0.17751744
0.04011363 -0.09732391 0.18269426
0.05648389 -0.25274450 0.15334114
-0.13137077 0.22377959 -0.08560327
-0.01070761 -0.30672681 0.18241058
-0.07076144 0.08420486 0.18417169
-0.13737670 -0.11502537 0.18731900
-0.10837127 0.17163378 0.18729374
0.05370093 0.14873663 0.17969419
0.10179354 0.14743191 0.17930599
0.07230240 -0.03909544 0.17147762
-0.06494101 -0.32277825 0.05081854
-0.06202141 -0.09109449 0.17063004
0.01315127 -0.31007615 0.17952530
-0.10170981 0.01307975 -0.14739110
0.15841089 -0.07643956 0.18267858
0.16600168 0.15184674 0.16071363
0.03408444 -0.33870837 0.18455943
-0.05753269 0.26720974 -0.13189740
-0.14544459 0.35893372 0.17446901
0.17802051 0.32114276 0.18327238
0.13164145 -0.23231319 0.18536182
-0.06399198 -0.15236694 0.18034296
0.06240675 -0.30196926 -0.02730147
-0.12135647 0.15060598 -0.11382438
0.13114446 -0.18058775 0.18501799
0.04518182 -0.11431549 0.18086788
0.05267970 0.10961698 -0.11330965
-0.01547531 -0.02217653 0.18791565
0.14446825 0.18304332 0.17361818
0.06297332 0.31816334 -0.08130302
-0.06591792 0.24276793 0.17653421
-0.08873399 0.25395936 0.18334877
0.08065332 0.21721998 0.18084943
0.02898950 0.14277831 -0.13734856
-0.11340667 0.32670835 0.10110512
0.24221158 -0.24181817 0.17302991
-0.12811497 -0.07210357 0.16837004
-0.15912504 0.29632261 0.18294176
0.02522530 0.27725628 0.17468722
0.16807809 -0.00532048 0.13416067
-0.03460813 -0.00879836 -0.00862056
-0.03736258 0.28842530 0.12157196
0.04408684 -0.10284024 0.18894175
-0.18538395 0.00628092 0.18375762
0.04136791 -0.31472194 0.13796003
-0.11103299 0.35387239 0.16564044
0.01171011 -0.28276518 0.18628165
-0.10870425 0.04537506 0.18321882
-0.20414972 0.15031224 0.18682083
0.04769732 -0.09551270 0.18839712
-0.12496433 0.07224955 0.18230760
-0.03559346 0.31792375 0.15691113
0.07234158 -0.09669651 0.17874512
0.01301620 -0.23329476 0.18698791
0.12199316 -0.12964886 0.18572998
0.11818075 0.23822096 0.18353720
-0.00868690 0.30149499 0.18738465
0.20674874 0.04470005 0.18750931
-0.08740241 0.23938747 0.18750608
0.07950105 -0.25109249 0.16951604
-0.18616378 -0.12498021 0.13453740
0.12452395 -0.30771625 0.09841419
-0.12468747 0.02291916 0.17999619
-0.15270211 0.10992175 -0.12929583
0.24413155 0.09330584 -0.13940385
-0.11779499 0.25514817 0.18161649
-0.14073080 0.22108622 0.18244068
0.05565235 -0.28369674 0.18795122
-0.05309670 0.20807937 0.19175583
-0.07328828 -0.30139887 0.18378635
0.10416576 0.16332662 0.18439595
-0.09738755 0.01300429 0.18522735
-0.08060717 -0.15027376 0.17410775
0.07534301 -0.36626208 0.16234465
-0.21042928 -0.23167378 -0.05597205
-0.15570325 0.20237634 0.18372658
-0.17209089 -0.16281521 -0.11817784
-0.07604929 -0.32307252 0.16925810
-0.15644196 0.16903535 0.18317997
-0.11278053 0.09936885 0.17837241
-0.00218419 -0.16610046 0.18158022
0.01210932 0.12798673 0.18258534
0.06315584 0.13089499 0.17548053
0.17458995 0.30892235 0.17686531
0.06813037 -0.05320952 0.17990720
0.00276118 -0.16102284 0.18014935
0.22299740 -0.15997337 -0.01057504
0.07087789 -0.18243426 0.17293210
0.02571881 0.10699137 0.17421111
-0.22892591 -0.26900175 -0.09296402
0.18061726 0.09605725 0.17067501
-0.02192378 -0.08959518 0.18017516
0.03503663 0.26733947 0.17607822
0.11156902 0.01609978 0.07441147
-0.02453883 -0.32386464 0.15470958
-0.03510511 0.17124884 0.18203773
-0.09473346 0.31384042 0.18565534
-0.08953609 -0.25667155 0.18695541
0.02267240 0.11843468 0.18716800
0.18041967 -0.18173146 0.14440984
-0.18680093 0.13697563 0.17854822
-0.20258820 -0.05975121 0.20039050
-0.06339730 0.05827269 0.19515319
0.07382597 -0.22302276 -0.12886092
0.05117584 0.25067979 0.19035989
0.07524603 -0.31398752 0.18269390
-0.06000314 -0.32574898 0.17156616
-0.10268676 0.29262477 0.19130974
0.03692146 -0.25293240 0.17696728
-0.11759456 -0.02542449 0.19163175
-0.06046601 0.11797810 0.18568841
0.14879051 -0.13407314 0.18120235
-0.01303307 0.21016653 0.15773095
0.16911937 0.21594341 -0.14049210
-0.17343341 0.22221300 0.17893897
-0.14172110 0.31045115 -0.16327588
0.19667330 -0.15610404 0.16095182
-0.12451790 0.29184648 0.18879011
0.01332890 0.10485162 0.17767224
-0.04922481 -0.00566178 0.18359080
-0.10767405 0.02634120 0.18339086
0.18473959 -0.31528246 -0.13311294
-0.14314091 0.29809240 0.17433280
0.17880106 -0.13906460 0.18447161
-0.12613702 -0.09733748 0.18356860
-0.04878426 -0.13595036 -0.11013149
0.09565264 -0.17220813 0.18680415
-0.14390068 -0.33106259 -0.04121314
-0.09735471 -0.10862328 0.15877098
-0.07614882 -0.11839448 0.18954943
-0.06532969 -0.19451001 0.18636134
0.17258242 -0.12865755 0.16816221
0.15846381 0.22589150 -0.11171746
-0.02926589 -0.22327664 0.18377933
0.14228673 -0.32727504 0.13074614
-0.06753667 0.06302088 0.18259712
0.08678132 -0.17670757 0.17098500
-0.18927935 0.15210506 0.17887346
-0.22389039 0.16537958 0.17796539
0.10346288 0.31563565 0.16813678
0.21315476 -0.12094481 0.16926160
-0.13458841 -0.18126164 0.17129698
0.11119545 -0.05289244 0.14629795
0.08938416 0.14053032 0.17538022
-0.16970029 -0.31757158 0.16915438
-0.02647037 -0.31740412 -0.04980299
0.02420415 -0.23016551 0.18857355
-0.10624287 -0.13630044 0.17320418
-0.15258263 0.28260311 0.17824012
0.03882428 -0.00670225 0.18323375
-0.27296102 -0.10524948 0.17076093
0.07731485 0.13310181 0.18021233
0.19448723 -0.26207539 -0.08899890
-0.10564661 -0.09415555 0.18424357
0.03459317 0.03401143 0.18618335
0.15970249 -0.13722427 0.18292539
0.02990923 -0.05256479 0.19675344
-0.00878249 0.27956617 0.16051415
-0.13535340 0.19430947 0.16913611
0.20506823 0.37127239 0.17479600
0.14252302 -0.22210072 0.18288232
0.00253761 0.20925882 0.18526098
0.13998157 -0.31780601 0.18454684
-0.22151601 0.03992848 0.04187493
-0.04693361 -0.25692990 0.17954811
-0.12142928 -0.01654143 0.18419303
0.09427879 0.02189219 0.18666303
-0.08425647 0.12522843 0.18367858
0.14210394 0.16126329 0.19076285
0.14359264 0.03287978 0.19244961
-0.23233585 -0.33515018 0.08496682
0.06747594 -0.31170958 0.17493629
-0.19894290 0.17567165 -0.11404759
0.01114815 0.02440680 0.16568089
-0.27041319 0.02517473 0.17324111
-0.09040747 0.00710529 0.18444549
-0.24347903 0.22781157 0.14647533
-0.13409123 0.02520304 0.19221225
-0.08903570 0.17384169 -0.13844691
-0.03347234 -0.35651758 0.17157626
-0.21474934 -0.25927749 0.15577243
0.05896326 0.29894111 0.18246630
0.03581441 0.00747822 0.17405830
-0.09531797 -0.13410245 0.18722932
-0.12453829 0.09343988 0.18151443
-0.03752765 0.33350509 -0.02551040
-0.14715256 0.06756365 0.18465210
-0.04149941 -0.11558382 0.17929389
0.10533097 -0.16992064 0.18222651
-0.11477455 -0.34773743 0.18025255
-0.10398595 -0.33159059 0.11273243
0.09365306 -0.10410544 0.18758768
-0.17644450 0.06158914 0.17367361
0.13352452 -0.28492865 0.18763927
-0.03216039 0.11368272 0.18804532
0.16657771 -0.22846800 0.17629921
0.15413287 -0.12666097 -0.13286886
0.00065055 -0.07208838 0.19078490
0.03798428 -0.22528207 0.17851537
-0.06658287 0.02291371 -0.11712872
-0.09369317 0.21658647 0.18871032
0.05572990 -0.33647415 0.18070589
-0.13321142 0.13921577 0.18813333
0.03560289 -0.26338482 -0.14806475
-0.23522171 0.24697840 0.18204798
-0.22433847 0.19071275 0.16769433
-0.06286328 -0.04161611 0.18902276
-0.05648736 -0.24090931 0.18373406
0.15469003 0.07136550 0.19109780
-0.17685035 0.28441927 0.17834076
0.00872692 0.18686551 0.18847866
0.11879224 -0.20519851 0.18019694
-0.18368152 0.00993738 0.18373846
0.15860158 0.26773623 0.18793726
-0.15397625 -0.09761445 0.18098503
-0.07609171 -0.35441244 0.15815540
-0.18392554 -0.19514650 0.17335790
-0.03515049 0.06852522 0.18588363
-0.10127081 -0.09621062 0.18829402
-0.20561397 0.01819130 0.18397166
0.04269346 0.29450852 0.13281371
0.25806949 0.21329302 0.15926258
0.19712836 -0.27872035 0.18103904
0.07464545 0.10099769 -0.12715024
0.01605967 0.29616994 -0.13937485
-0.11405827 -0.08841261 0.18551707
-0.14524001 -0.30778515 0.01577245
0.11341949 -0.04124823 0.18870683
-0.19901349 0.26758385 0.05537959
-0.06731421 0.36635429 0.18177335
-0.15556720 -0.29957509 0.06070808
0.07433479 0.18696374 0.18226303
0.07925417 -0.26231778 0.18155505
-0.06693566 -0.20611854 0.05443137
-0.17281763 -0.14950797 0.17283903
0.09160706 -0.02137449 0.18532690
-0.08237556 -0.18488717 0.18275592
-0.01074827 0.12928623 0.18772653
-0.22836106 -0.29471245 0.11755989
-0.07947493 -0.00506689 0.18516630
0.11547158 0.12852785 0.17947143
0.10123614 -0.01960502 -0.06707761
-0.14837950 -0.28213862 0.17907327
0.11415309 0.10592277 0.18484814
-0.13980621 0.14890005 0.16630726
-0.15093964 -0.09651536 0.18493886
0.16046901 0.30244562 0.01088005
-0.10924087 0.26526248 -0.12599522
0.07412531 -0.15127896 0.18233716
0.11312708 -0.12318617 0.18108903
0.07027544 0.05180718 0.18571915
0.13432850 -0.04266123 0.17273718
0.17747742 -0.15100929 0.16674241
0.05827803 -0.05930126 0.16281399
-0.06693078 -0.27067772 0.18282709
-0.06250689 -0.03090656 0.18148765
-0.02170280 0.02183515 0.18371274
-0.15609717 0.07550348 0.18773092
-0.13756801 -0.14532954 0.18560350
0.16622135 0.02424972 0.18806873
-0.25760728 -0.21826601 0.17118464
0.23901388 0.26150435 0.07457121
0.02469208 0.34665504 0.12205323
0.17398745 0.27636203 0.13327625
-0.07237291 -0.30903894 -0.15632911
0.00448183 0.06387585 0.17930108
-0.17326400 -0.09063812 0.17154743
0.13313207 0.26301283 0.16632350
0.08601750 -0.08961380 0.18471110
0.04406775 -0.08101831 0.16447255
-0.13211390 0.13267338 0.17549494
0.07454737 -0.29103127 0.17561074
-0.17168298 0.33875889 0.08979303
0.05096380 -0.23835820 -0.12611045
0.07473574 -0.28950471 0.18325751
0.04466686 -0.13526371 -0.12984693
-0.00568291 0.08929241 0.17978856
-0.01680578 -0.30207419 0.18510860
-0.01397735 -0.22575493 0.17908694
0.13380830 0.30269656 0.17504610
-0.04262681 0.30220526 0.17877316
0.14158703 -0.25027469 0.17445786
0.02785462 0.14552613 0.17940503
-0.18243310 -0.30795169 0.18056221
0.05079496 0.19586608 0.18109338
-0.18987295 0.25667125 0.18041582
0.10106751 -0.16380306 0.18118064
0.02264639 0.19923729 0.18278353
0.01311734 0.02204544 0.18437323
-0.11473367 -0.08130369 0.18981789
-0.20585892 -0.16463266 0.02576467
-0.25959295 0.05457078 0.15276539
-0.04632737 0.10830723 0.18648203
0.15640241 0.04604671 0.17350602
-0.13692841 0.32024294 0.17620203
-0.20650280 -0.11451450 0.17867845
0.05029933 0.26203433 0.17699614
0.15582249 0.25232714 0.18305609
-0.14378305 0.28107470 0.18157223
0.18780777 -0.26345101 0.14727944
-0.13662687 -0.07809304 0.18494208
-0.13100564 -0.10783850 0.17752858
0.16557547 0.21937916 0.05652076
-0.07727437 -0.00579822 0.17940743
-0.01099605 0.04100511 0.18351959
-0.04457472 0.25070342 -0.08886220
0.07163646 -0.23927800 0.18724102
-0.20185722 -0.33655053 0.07370807
0.10127557 -0.34982219 0.17408925
-0.08972580 -0.14791940 0.04404346
0.18697733 0.29990423 0.14217381
-0.04958458 -0.05704768 0.18491551
0.11700321 -0.24291199 0.17731677
-0.14802828 0.36283636 0.17017066
0.10078143 0.31732869 0.14655727
0.19675353 -0.28999078 0.16700575
-0.03931352 0.29321519 0.18739468
0.23512734 0.16056526 -0.11655612
-0.13985956 0.32199383 0.00925069
-0.11237532 0.14018922 0.17791006
-0.14847755 -0.16259272 0.17826073
0.18354690 0.26258463 -0.00306136
0.16498809 0.34914342 0.15716577
0.09762152 -0.31397128 -0.00044250
-0.15313299 0.33626953 0.15215230
-0.21505825 -0.25326985 -0.16974412
-0.18181744 0.22808957 0.17900795
0.03456726 -0.07866634 0.18274660
0.01529848 0.32446980 0.19087534
0.01226529 -0.13535649 0.18756768
0.18591358 0.01046925 0.17471807
0.17217690 -0.20044969 -0.15846273
0.19815999 -0.28726289 -0.15141067
-0.03573450 -0.24973996 0.17716399
0.09816204 -0.23773089 0.18516783
-0.09209180 -0.03546380 0.17590928
-0.17480431 0.11108847 0.18019328
0.05166617 0.03296671 0.18927783
-0.14879872 -0.28370580 0.16280851
-0.14813487 -0.29274470 0.17174174
0.10014769 -0.00205506 0.18804306
0.14145711 -0.25264323 0.02156136
0.03268735 0.33168957 0.17394967
0.06449468 0.07492255 0.18090497
0.14731881 0.29625332 0.16442001
-0.02418751 0.35123461 0.17725073
-0.10403149 0.09676702 0.17648463
-0.09871159 -0.34814146 0.18328021
0.02651116 -0.15971403 0.18984652
0.00345168 0.11218943 0.18331453
0.10110968 0.30521044 0.16536134
-0.17873456 -0.15736471 0.18197371
-0.26313224 -0.20225129 0.14318065
-0.08103003 -0.07240116 0.18125130
-0.19937739 0.10425293 0.18842281
0.02143879 -0.09931350 -0.07813567
0.05228806 0.00027096 0.18972716
-0.11857698 -0.00455507 0.18708149
0.22448327 0.26171944 0.17456786
-0.17037523 -0.12117153 0.18510297
0.12397513 0.32977173 -0.12705642
-0.07057039 -0.29983041 0.15371981
0.07828056 0.30390039 0.18061186
-0.01988918 -0.03646864 0.18061200
0.15884110 0.10182284 0.18527806
-0.00634618 -0.07900704 0.18016981
-0.10076374 -0.06287802 0.18399657
-0.06699014 0.04838688 0.18486528
0.19363526 -0.14564504 0.10986719
-0.08082447 -0.06772105 0.17771766
-0.18389469 -0.30643505 0.03994410
-0.06325910 0.02378184 0.18479063
-0.09624523 0.03122324 0.19642328
0.10079798 0.24213921 0.16253035
-0.16712379 -0.18297833 0.18083622
0.15252042 0.19414757 0.18823339
-0.23347974 0.09032729 0.12211366
-0.05670354 0.26427841 0.18083775
0.08202084 -0.22735491 0.18188512
0.15227984 -0.15368633 0.18919359
0.03875812 0.02465872 0.18478595
0.01199295 -0.30480647 0.18200350
-0.19088429 -0.31522733 -0.03420842
0.08320158 0.30697322 0.18598804
-0.14234516 -0.16830634 0.19132854
0.20071582 -0.29378217 0.17181656
-0.02352723 0.30717301 0.18358186
-0.08617041 0.16194393 0.18620276
-0.13750772 0.07652707 0.18646830
-0.03862747 -0.18831974 -0.12176584
-0.07331236 0.21231686 0.18115699
0.11154297 0.32656845 0.02423383
0.07177597 -0.18165752 0.17714758
0.09968147 -0.05889152 0.18552309
-0.10076301 0.20432198 0.18473050
-0.11160183 0.05000206 0.18107827
-0.03802319 -0.18637300 0.18554626
-0.22268984 0.13350326 -0.04649247
-0.23769514 0.26705256 0.13887973
-0.20398137 0.27924028 0.07019296
-0.05279186 0.06296593 0.17631982
-0.09818413 -0.19006959 0.18699476
0.27569044 0.02176665 0.15400159
0.02284699 0.13106759 0.17152867
0.03408909 -0.19702753 0.18113631
-0.16346353 -0.31182191 -0.17273109
0.14002825 -0.04574822 0.17439087
-0.12153621 0.29962766 0.15739805
-0.11916465 0.17544597 0.18196934
-0.01174352 -0.34209657 0.18433823
0.09330347 0.02759726 0.18352097
0.08136113 0.06178931 0.18057950
-0.15427631 -0.29499856 0.18474676
0.05372504 0.00072163 0.18482935
0.12862237 0.14345586 0.18001716
0.12075692 -0.12287436 0.17245561
0.09049486 -0.34900874 0.17606895
-0.19335142 0.07395180 0.18408105
-0.15299095 -0.27503806 0.18847124
-0.23318401 0.01121727 0.18434711
0.16412932 0.07382642 0.18455628
-0.01850361 -0.08409049 0.18591128
-0.21688303 -0.00170866 -0.08273943
-0.12604092 0.17319605 0.18624158
-0.17878342 -0.32876310 -0.07090516
0.12727389 -0.13386923 0.02201268
0.03125583 -0.28205928 0.18106873
-0.16781887 0.19240628 0.18480843
0.00965163 -0.22739236 0.16527984
0.04830151 0.05139154 0.03184992
-0.12997879 0.07395361 0.18266127
0.21130291 -0.00501693 0.02334464
0.11872947 -0.28684521 0.17926905
0.09545428 -0.01600028 0.17886689
0.05378389 -0.19883355 0.17881128
-0.04054434 -0.08871121 0.17955619
0.18428224 0.22347619 0.18395910
0.17336874 -0.11154570 0.17509066
0.14119250 -0.20036098 0.18898706
-0.15697883 -0.14001717 0.16194868
-0.05380594 -0.09300700 0.17117408
-0.05091067 0.33337662 0.17634289
-0.12653480 0.08771256 0.18140048
-0.00707194 0.31082842 0.11334573
0.00329719 -0.15078226 0.16998264
-0.00462942 0.25610241 0.18744923
0.09661179 -0.11211227 0.17638536
0.10605465 0.22749527 0.17783213
-0.10765641 0.29559040 0.17085969
0.13035510 0.11555438 0.18927711
0.13094676 0.06813434 0.17732857
-0.10051471 0.18435152 0.18016508
-0.00458866 0.04009845 0.18527319
-0.07080213 -0.17986968 0.18937130
0.05864552 -0.33171231 0.13701189
-0.01365743 0.36034608 0.17285508
0.17410050 -0.02276903 -0.13613133
-0.12422165 0.16357704 0.18412258
0.04620556 -0.17092325 0.18694714
0.18314633 -0.27167353 -0.16753103
0.04363366 -0.28548014 0.16719906
-0.07892045 -0.34690040 0.17842729
0.07268915 0.06552691 0.18287602
-0.06181424 0.23606448 0.18271829
0.00624324 -0.13447583 0.18755957
-0.02459477 0.02795792 0.18621811
-0.08791582 -0.08088216 0.18679154
0.01742898 0.32808244 0.15498334
0.01609382 -0.22536626 0.18202734
-0.17800041 0.30015552 0.16546048
-0.13251480 -0.28410712 0.12552688
0.04943766 -0.24553913 0.18731780
0.14144804 -0.03807722 0.18272412
0.12368431 -0.28365222 -0.13454668
-0.11944948 0.23574029 0.18407167
0.09075919 0.07757686 0.18674177
-0.14385651 0.19088346 0.16241851
-0.24688821 -0.03979218 0.15513803
-0.02945390 -0.23690519 -0.13350920
-0.18486339 0.17614594 0.18976755
-0.13259286 -0.29354167 0.15424196
0.07619914 0.19924752 0.17120005
-0.04418290 -0.28201035 0.11808928
0.08699265 0.16414371 0.18251128
0.17860332 -0.10560777 0.17057352
-0.26774436 0.15609488 0.14803721
0.08851791 0.17991939 0.03565307
-0.01198372 -0.28070402 0.16050915
-0.20009491 -0.03592320 -0.12713423
-0.13738161 -0.03451947 0.18037689
-0.04183674 -0.01631825 0.18539026
0.06570630 -0.35114047 0.16878651
0.15532403 0.01904586 -0.13958497
0.23711388 0.07577979 0.14892802
-0.07850194 -0.09855831 0.18298943
0.08839736 0.28511512 0.19321381
0.00462213 0.28716463 0.18550338
-0.07784323 -0.17902598 0.16463874
-0.10599759 -0.25824469 0.18424959
0.03606260 0.29512107 0.18387386
0.21419075 0.30809069 0.04349469
-0.02060495 0.20140201 0.16745397
-0.21115372 -0.06325304 0.04457568
-0.02405114 0.02029064 0.18690011
-0.09828037 0.00258319 0.18898091
0.01651595 -0.28649294 0.18391468
0.18509588 -0.30964974 0.13410608
0.21365598 -0.03493972 0.14877056
-0.08970904 0.23258485 0.01840283
0.00748344 -0.09168527 0.18111381
-0.03349321 -0.30481970 0.18987936
0.06475611 0.25099859 0.18014802
0.17802706 0.13378257 0.18021961
-0.09499142 0.18089902 0.18557747
0.02229797 -0.00875996 0.18981417
0.12490969 -0.04531968 0.17211005
-0.06447498 0.04838279 0.13107988
-0.15903205 0.01870115 0.17797233
-0.01503595 0.26330817 0.18571714
-0.02238064 0.08545709 0.18203905
-0.09774752 0.33551374 0.16366310
0.15835382 0.17883895 0.18360375
-0.05533425 -0.25278008 0.18766300
-0.09718764 0.02489741 0.19155245
0.11636871 -0.35256726 0.17846321
-0.07787377 -0.25679761 0.17735532
-0.04666680 0.08177070 0.18464293
-0.08703296 -0.31379682 0.17598262
0.09462626 -0.31396779 0.18467449
-0.12035052 -0.13970082 0.19148307
0.08466177 0.20478004 0.18472371
0.11503158 0.05815624 0.15014660
0.06667540 -0.08445041 0.18294652
-0.12901588 -0.13517542 0.18510067
0.10789447 0.32678071 0.11192223
0.13375428 0.13142677 -0.12517518
-0.22642465 0.14212792 0.18541981
0.12717858 0.10351960 0.17191786
0.00104739 0.17332903 0.16684893
-0.13300703 -0.22528031 0.18228585
-0.19454400 -0.28324410 0.00851723
-0.16172880 -0.30520353 0.17886253
0.11098085 -0.05580517 0.18308556
0.16357644 0.08098483 0.16023275
0.19409522 0.07288894 0.15944329
0.01505254 -0.00026766 0.18587884
-0.13517508 -0.01946878 0.18006282
0.06121782 0.25652269 0.19272821
0.02577190 -0.26775014 0.18538177
0.21451621 -0.32739335 0.06328874
-0.02715445 0.26525983 0.19932261
-0.04246178 0.03427184 0.18680380
-0.10342239 0.22991610 0.17540745
-0.18243958 0.11562691 0.18674183
-0.04351968 0.00707572 0.16689169
-0.18408710 -0.09194405 0.18582432
0.03266899 -0.22777466 0.18269730
-0.04325195 -0.33905506 -0.07998031
0.17585859 -0.19633931 0.18563318
-0.06567432 -0.12519753 0.17905129
-0.02387138 -0.21424012 0.17866381
0.09573361 0.28643832 0.18049860
-0.20506489 0.36752003 0.17643818
-0.17417920 -0.12684584 0.17577790
-0.04465357 0.30777389 0.18067925
-0.10650703 0.29207230 0.18933029
-0.01961161 -0.33539200 0.18622197
0.08959118 0.09407189 0.18880418
-0.15467712 0.28715533 0.18406020
0.07009855 -0.18855722 0.17884038
-0.27325758 -0.17185602 0.16474503
0.18349493 0.21100548 0.11492935
0.15806596 -0.14219514 0.18463530
-0.11595337 -0.19650945 0.16729395
-0.17040518 0.14149737 0.18659259
0.16204983 0.25073770 0.17414299
0.10421100 0.17932209 0.18792577
0.03447704 0.17686887 0.17737059
-0.10621678 -0.14776273 0.18398562
0.06314974 -0.25648794 0.18335696
0.07719262 0.05069204 0.17047431
0.08631998 0.27565014 0.18266973
0.27171323 -0.02773602 0.17303136
-0.12085605 -0.25538132 0.18265018
-0.08531275 -0.04846855 0.18454830
0.04300480 -0.07267990 0.18219221
0.05716223 -0.04995450 0.17622401
-0.14001909 0.16050126 0.18591985
-0.11397404 -0.30654305 0.17365664
-0.16854791 0.30338779 0.19040185
0.15568699 -0.09839723 0.17663513
-0.13079232 0.18165973 0.18404767
-0.06224970 -0.12968110 0.18236819
-0.17121634 0.29668787 -0.11335554
0.24016507 0.13110480 0.17435858
-0.08719276 -0.34812874 0.18538320
0.01733402 0.06210577 0.16249359
0.12536560 0.04067184 0.18728179
0.02278893 -0.19883339 0.17668884
0.07464425 0.29549250 0.18682955
0.10242937 -0.32401547 0.12201694
-0.22798178 0.21186344 0.19293137
-0.19265203 -0.03959688 0.15946093
0.16067134 0.11357954 -0.05183198
-0.11380324 0.00019850 0.18451729
0.00566578 -0.30230820 0.18674316
0.19975263 0.07807149 0.17289186
0.02633714 0.28110158 0.17246521
0.07383516 0.03024761 -0.11721420
0.02324093 0.26811251 0.18482599
0.11333667 -0.06013820 0.17754778
0.07292016 0.30527493 -0.08826728
0.00138488 0.23484141 -0.14925939
-0.23781753 -0.29848596 0.19452116
-0.14274216 0.23084934 0.18968743
-0.07677518 -0.03177281 0.18045206
-0.10508274 0.18982753 0.18076828
0.17185585 0.27839506 -0.15433697
0.20630231 0.03191345 0.15823589
-0.04236608 0.15957274 0.18441658
-0.10190530 0.26887035 0.18382046
-0.06243884 -0.16796784 0.18687876
-0.12539008 -0.01535809 0.18524539
0.22602198 -0.19787911 0.17290992
0.05756105 -0.33698028 0.13935314
-0.09700262 -0.36681452 0.17940764
0.06760663 -0.33272222 0.16130844
0.20562205 -0.29550806 0.00556667
-0.20272170 0.27583736 -0.15690996
-0.13938247 0.02485700 0.17068428
0.20982751 0.15316263 0.16531268
-0.20108943 0.04958624 0.18032926
-0.11950707 -0.34479260 0.14784938
-0.25006863 -0.08379935 0.18208843
0.15001407 -0.30449507 0.10982319
0.02473068 0.01972451 0.18499294
-0.10891845 -0.15973482 0.18053605
-0.01640006 -0.32970625 0.16395465
0.07732346 -0.09127927 0.18338662
-0.24406321 -0.22069776 0.16445409
-0.13092190 0.06392897 0.13284537
-0.17074659 0.23855601 0.18157279
-0.16144730 0.04799700 0.18844822
-0.05703317 0.26232541 0.18253821
-0.16481695 0.19696355 0.17934616
0.01193699 -0.33733320 0.18405251
0.12248410 -0.10468733 -0.07760890
0.23288247 -0.16446066 0.16148081
0.05116167 0.30872250 0.16266572
0.04254656 0.24530408 0.16861379
-0.14434358 0.25510731 0.09799250
0.04821379 -0.02535600 0.18200700
0.04659724 0.11892588 0.18261154
0.05166899 -0.05176035 0.18893833
-0.10858326 -0.31015995 -0.06551853
-0.06552343 -0.10301653 0.17968917
-0.04047853 -0.23738062 0.17811407
-0.16631427 -0.26422891 0.17039752
-0.15129000 0.13857296 0.16085431
-0.20191780 -0.12682422 0.16412771
-0.05815779 0.12290031 0.18805109
0.17626214 -0.09816581 0.18507493
-0.15602532 0.22987598 0.18411691
0.18255329 0.31413272 -0.11640735
-0.17732720 0.12945198 0.16371861
-0.01902133 -0.26568159 0.16680178
0.13350950 0.02665928 0.18392918
-0.11108421 0.05835769 0.18266816
-0.00179546 0.12558219 0.16751520
0.06085062 -0.33058238 0.05170265
-0.22442004 0.27159637 0.02074151
-0.13229948 0.23099253 0.18996379
-0.03201471 -0.23395441 0.18917380
-0.03902728 -0.03482009 0.18950787
0.17822213 0.07583050 0.17310020
0.12390301 0.16438515 0.06417161
0.05932034 0.17604005 -0.11735450
-0.00487013 0.29850477 0.07251326
0.02666881 -0.16363546 0.17822805
0.20955284 0.26092613 0.15501878
-0.10490251 0.15920442 -0.13982511
0.10742684 0.22426538 0.18744773
-0.04703893 -0.03080317 0.18599877
-0.23363802 -0.02827933 0.18467401
-0.08409634 0.21328062 0.18586487
-0.14386858 -0.28073958 0.18386351
0.01015342 0.06249593 0.18977447
0.07859745 0.37846339 0.16142821
0.20284857 0.11593628 -0.11515625
-0.00570272 0.26730043 0.18273868
-0.10251777 -0.01416459 0.17026857
0.20132959 0.31376246 0.16467382
-0.09740718 0.35505611 0.18683490
0.12439705 -0.29088718 -0.12221794
0.03007957 0.23684825 0.18480136
0.06203306 -0.22987218 0.18520465
0.00903772 -0.20408946 0.18269075
-0.16221759 -0.03533572 0.18076468
0.05424597 -0.11103074 0.18311414
-0.11708561 0.08336985 0.18514305
-0.03228427 -0.05056233 0.18638428
0.09198818 -0.23007438 0.18517095
-0.11888258 0.30982170 0.18364000
-0.11906698 -0.17623211 0.17687397
-0.12399296 0.01965586 0.18367440
-0.09926941 -0.01249533 0.18510213
0.09724436 -0.30020592 0.19200903
-0.13324004 0.22857139 0.18844232
-0.23790878 0.23935804 0.17987405
-0.21346217 0.20806955 0.09988824
-0.19734542 0.16203742 0.18233924
-0.00721922 -0.32749909 0.17912176
0.08119752 -0.13856804 0.17912833
-0.04662941 0.10908830 0.18415983
0.13177413 0.01369977 0.18198773
-0.18379998 0.03626757 0.18546304
-0.15921105 0.20797415 0.18012433
-0.06761013 0.32348597 0.18113020
-0.18378465 0.31136456 0.16807744
0.19300871 0.03884482 0.16653275
0.14040683 -0.29642048 0.13194486
-0.03253300 0.16819738 0.18342967
0.05880157 -0.18393421 0.18385303
0.07762813 -0.33363998 0.18757173
0.05200513 0.32143879 0.18787734
-0.03374951 -0.08206287 0.18525073
0.04815955 0.32307404 -0.05187002
0.06434929 0.13960978 0.18610063
-0.06152827 0.15057924 0.17978549
0.19011217 0.08483654 0.17416520
0.20228763 -0.01888832 -0.10432202
-0.02298126 -0.10489830 0.16976811
-0.20230824 0.06724790 -0.03794535
-0.05690354 -0.32434911 0.18530157
0.12090609 -0.27564946 0.17170307
-0.05867166 0.09809238 -0.06931528
0.16209513 -0.15584888 0.18769094
-0.22434027 -0.19192217 -0.01330193
-0.04893493 0.09539331 0.18407394
-0.11034923 -0.15703306 0.18410748
-0.07564630 0.07503408 0.17695357
-0.22190019 0.11109200 -0.14487311
0.04122969 0.28128916 0.18173751
-0.03478039 -0.21300782 0.19079809
-0.25208786 0.20451024 0.05283246
0.19691032 0.14847487 0.18471436
-0.06969216 0.13772255 0.18583097
-0.22043836 0.33606464 0.00376331
0.00659160 0.22446395 0.18355286
0.09292433 -0.28452712 0.19045509
-0.16140170 0.22072446 0.18857335
0.01686260 -0.31921732 0.17661586
0.17376268 0.32592303 -0.14851964
-0.04165650 0.24052249 0.16759503
-0.21659365 -0.10563993 0.17944084
0.09708709 -0.02849562 0.18044677
0.07084057 0.30865803 0.18468930
0.16029193 0.31587246 0.09998371
-0.21288490 0.33766335 0.08631693
0.06691440 -0.20059684 -0.13302252
0.14485389 -0.15819976 0.17493346
-0.18225473 -0.00807776 0.12721294
0.17993635 -0.33630252 0.00488911
-0.10143375 0.06509585 0.18565640
0.14369579 -0.22617517 0.18903381
-0.10511272 -0.19799279 0.18964103
0.15582463 -0.11681177 0.18972395
0.20293766 0.05566382 0.18208475
0.06806092 0.09300067 0.19170205
-0.17225309 0.04068257 0.15364970
-0.00364115 0.06777972 0.18804158
0.13879380 -0.09925939 0.18094453
0.11882269 -0.01446985 0.17407984
-0.18734814 0.05630165 0.18532787
-0.10949160 -0.12143999 0.18904807
0.12226608 -0.28396073 0.18315019
-0.01076823 0.34816936 0.15842830
0.08086190 0.34062430 0.17200649
0.11140352 0.03150856 -0.14873876
-0.09511065 -0.32153964 -0.00665534
0.18796669 0.20796332 0.01981966
0.13226591 0.14705542 0.18128249
-0.17192473 -0.24734066 0.18341178
-0.18820566 0.19142985 0.16228205
-0.03236955 0.08288720 0.17890343
-0.23028636 -0.20864949 -0.13652448
0.08655032 -0.02849945 0.18686077
0.14671144 -0.15645842 0.16492006
-0.21300429 -0.31898898 0.17105946
-0.01649432 0.36411947 0.17254825
0.17641512 0.20205726 0.13503750
-0.18721819 0.25820497 0.19180675
0.07204790 0.02890452 0.17489408
0.00143855 -0.06977320 0.18918391
-0.06693149 -0.03345482 0.18283574
0.02860881 0.15771668 -0.00637639
0.00834556 0.00161943 -0.13805480
0.18650518 0.31947666 0.02725193
0.22043341 -0.03866111 0.15967007
0.00362829 0.25066146 0.17989856
-0.22051990 -0.33002412 0.01776165
0.07958331 0.09134501 0.17679784
0.09849292 -0.14480475 0.17763233
-0.01136441 -0.34331265 0.14282310
-0.03090641 0.33821657 0.18026046
-0.02981565 0.07152885 0.17125887
-0.02097572 -0.04416539 0.18256779
-0.00124346 0.29438299 0.17879577
0.14992765 0.04571180 0.17683223
-0.16545820 0.29799682 0.18598948
-0.22044845 0.24999732 -0.08968615
-0.03299578 -0.18413180 0.18566568
-0.22525756 0.06313989 0.17320411
0.01932064 0.25510558 0.15211543
-0.05586337 0.34407127 -0.14669457
0.20840912 0.09348653 -0.11355289
0.06406243 -0.17360611 0.18762575
-0.16523947 -0.13459042 0.17198941
0.09024527 0.04219668 0.17946908
0.05040069 -0.22843535 0.18023804
0.07390278 -0.15469059 0.17974307
-0.16690178 0.22611474 0.18707050
0.05693883 -0.04755789 0.18392639
0.17620525 0.17106310 0.16789341
0.00233032 0.24145815 0.18304327
-0.17956397 -0.19178683 0.15888982
-0.13226093 0.24128991 0.18267918
0.10356992 -0.33798912 0.16720320
0.14291435 0.18785252 0.15602282
-0.13524650 -0.06730766 0.18527266
0.02296433 -0.15488279 -0.12513186
0.10357583 0.11498107 0.18866107
-0.26073894 0.22284666 0.16877259
0.09576081 -0.15588570 0.18017681
-0.28373563 0.10004225 0.17499001
-0.17419919 0.32637256 0.18463761
0.07011207 0.11763346 0.16930638
-0.03714272 0.01008565 0.17970815
-0.14929396 -0.07581980 0.18887097
-0.06776495 -0.08501938 -0.14177769
-0.03950689 -0.02885570 0.18712610
0.09072684 0.15468162 0.17904839
-0.01671752 -0.12836480 0.18568709
-0.24107496 -0.03949697 0.16319501
0.03277377 -0.10164458 0.18211000
0.21292512 0.05395866 -0.01390536
-0.04016767 -0.17289384 0.18740804
-0.02488820 -0.27617139 0.18645521
-0.04416879 0.27984557 0.15183350
0.06854489 0.25437552 -0.15904433
-0.16271144 -0.16019942 0.18845610
-0.13059326 0.08202296 0.16163039
0.08610061 -0.35870486 0.15615259
0.10325006 -0.14934550 0.17901167
-0.19299728 -0.05993409 0.17749184
0.08883023 -0.14882027 0.18827346
0.14737175 -0.28824031 0.18573670
-0.09341028 -0.05586157 0.18266197
-0.06004235 -0.24326260 0.19148166
-0.06902900 0.10644211 0.18134388
-0.03127846 0.00258490 0.18508972
0.19694413 0.00050700 -0.06792746
-0.18794906 -0.26430076 0.14863242
0.16644502 0.11962515 0.17792192
0.06964819 -0.16521260 0.17315094
0.00479285 -0.17879796 0.16653094
0.05024523 0.06322730 0.18329351
-0.11917153 -0.04068680 0.18335345
-0.23010926 -0.19569987 0.20068577
-0.07796991 -0.22039987 0.17460217
0.01350468 0.32372242 0.18545263
0.07936991 -0.00660313 0.17979470
-0.13509662 -0.08292930 0.17930843
-0.13635708 -0.03798159 0.17892140
-0.25303742 0.35157919 0.16046838
0.06965414 0.03904552 0.17498960
-0.11678059 -0.25647473 0.18793815
-0.07302945 0.28697416 0.17620473
0.11063967 -0.26616353 0.18873414
-0.10861190 0.02796135 0.18754233
0.03592346 0.21668568 0.18241796
-0.09869929 0.06545827 0.18483761
-0.20410268 -0.29792011 0.09633320
-0.06930254 -0.08014954 0.18961677
0.17101729 0.13124861 0.16199410
0.07447584 -0.09747905 0.17125127
-0.12521662 -0.12257042 0.18494341
-0.12674464 0.08411548 -0.12308148
-0.03693777 -0.02647439 0.18766393
0.02115986 0.10351746 0.17314823
0.04058594 0.29103386 0.18184286
-0.02728531 -0.21209244 0.19035232
-0.00854594 0.07318246 0.16130912
-0.21268451 0.07779966 0.17551501
0.15841591 0.08668703 0.18710929
-0.10456853 -0.00714248 0.17693500
-0.17554466 -0.24892406 0.17036444
0.05463326 0.29870284 -0.14327481
0.08206559 0.37167335 0.16554193
0.12421513 -0.17532517 0.17609955
-0.13004895 0.04958234 0.17830212
0.04602586 0.13847870 0.15201430
-0.18182971 0.12131391 0.18251820
0.04652149 -0.21112269 0.18366273
-0.19576357 0.26377615 0.17984068
-0.08788727 -0.10186227 0.18605939
0.04059196 0.27538690 0.16711067
-0.12357678 0.08492912 0.18052408
0.16409537 -0.17075744 0.18288909
-0.18394569 0.02691610 -0.14389586
0.01317827 -0.11777691 0.18494964
0.11665477 0.13983600 0.16909188
0.01177057 -0.13907719 0.18905234
-0.02400118 -0.24854268 -0.12083700
0.10784090 0.12035286 0.17569888
-0.06854387 -0.17221570 0.18178308
-0.17449254 -0.31484616 0.18058532
-0.16190018 0.31596226 0.04862899
0.07869989 -0.32034338 0.14705357
0.11729621 0.27971241 0.15375210
0.06590845 0.18520552 0.16322885
-0.06343905 -0.03694391 0.18030928
0.04746166 0.05927766 0.18022537
0.01844974 0.08401718 -0.14934535
-0.05303270 0.02892617 0.18173161
-0.04640442 -0.03364704 0.16790217
-0.03169135 -0.31873962 0.15436532
0.12492171 0.27093360 0.19001701
-0.08678065 0.32071495 0.06330696
0.05520838 0.07649768 0.17045368
0.10569575 0.31677228 -0.04923442
-0.03187493 0.01065166 0.19964111
0.23906602 0.15833545 0.05403121
-0.15197252 0.15220156 0.18622559
0.05935356 0.03691348 0.17997189
-0.16673036 0.08911034 0.19495696
0.04337275 0.01029275 0.17710865
-0.01920723 0.38032922 0.16209841
-0.10733755 0.04609680 0.18390338
0.18855713 0.19491842 -0.17563048
0.15020548 -0.02489794 0.18142904
0.01280217 0.09177916 0.17202030
-0.04799360 -0.10978624 0.18622012
0.04769173 -0.25484890 0.18877339
0.14958262 0.19153032 0.18618108
-0.10858250 0.26100209 0.18739524
0.08108301 -0.32489163 0.18649161
0.13706759 0.08991693 0.18104886
0.13112485 -0.31819370 0.18439408
0.10554105 -0.21122314 0.16518144
-0.24117184 0.10902209 0.11592023
-0.05796308 0.32221931 0.17972717
0.06248654 -0.28812540 -0.12576011
0.06005068 -0.13571414 0.18514746
-0.04172785 -0.36294711 0.17614955
0.15464990 -0.26964357 0.07017013
-0.18517803 -0.31631953 -0.09761793
0.13737117 -0.21986566 0.18284389
0.19154808 0.30194920 -0.16501954
0.22935261 -0.16476762 -0.11542297
-0.23108426 0.16684121 0.04363454
-0.02434874 -0.36256301 0.17359370
0.18265244 -0.04732915 0.18225951
0.14585561 0.08136293 0.18598334
0.03095483 0.26595697 -0.05426236
-0.02717162 -0.10626912 0.18482380
-0.12119063 -0.12062896 0.18049909
0.25407231 -0.18613972 0.17412899
0.05448730 0.30342019 0.16338170
-0.06025534 -0.23631722 0.18494327
-0.05308802 -0.34558460 0.18530771
0.21464196 -0.08342657 0.08496914
0.06123776 -0.12869276 0.18364990
-0.06711034 0.07629824 0.18187416
-0.16440819 -0.32633850 0.18586160
0.14845771 -0.32166851 0.16359895
-0.19603966 -0.16533683 0.18903349
-0.07847023 0.03868093 -0.14977375
-0.05354293 0.29448000 0.19254452
-0.16988176 -0.09265783 -0.07803868
-0.14162388 -0.19406939 -0.14112478
0.05712453 0.02579082 0.16572800
-0.18654616 0.05071125 0.18023430
0.10031755 -0.03701130 0.13273470
-0.13028118 0.32523417 0.16230029
-0.04262956 -0.19777507 0.18033276
0.08256961 0.16770227 0.17271477
0.09207533 0.09983021 0.19230628
-0.25449210 -0.08233599 0.15443614
0.07401008 0.14156669 0.14908926
0.05530618 -0.27217630 0.19181518
0.08196185 -0.16955183 0.17642914
-0.06943922 0.08939344 0.17962101
-0.02129212 0.09977171 0.17260949
-0.20586237 -0.19700164 0.18589436
-0.21204813 0.29084322 0.10933232
0.02798710 -0.00633632 0.17950389
-0.09639499 -0.05326623 0.17990673
-0.25162145 -0.03412491 0.08564846
-0.17881957 0.00527245 0.17424844
0.16651875 0.31851023 0.12316978
-0.03821947 -0.12242588 0.18059820
0.12273342 0.23478897 0.18480824
0.11249856 0.20969960 0.19009170
-0.02051194 -0.11090844 0.13902868
-0.21259731 0.14781010 -0.11399268
-0.03586575 -0.06632486 -0.13255160
-0.14459945 0.15146270 0.18026045
-0.07824462 0.18766749 0.18513533
0.10921870 -0.05225025 0.18521951
0.22220463 -0.22319661 0.13603739
0.15834920 0.07503582 0.18367252
-0.07450832 -0.00689297 0.18704158
-0.16504176 0.29108021 0.18337305
-0.14818887 -0.17294608 0.17905787
0.16165964 0.00753189 0.17952546
-0.16617836 0.18414780 0.18309005
0.16085002 -0.02595025 0.15231605
0.03360903 -0.03236853 0.17671287
-0.20777392 0.02110695 0.15966941
-0.17239806 -0.02415635 0.19148585
0.23798320 -0.16562453 0.01627696
-0.11265104 -0.16654626 0.17605330
-0.11981700 0.25490019 0.18297482
0.09591324 0.05916421 0.18063067
-0.14300732 -0.26846159 0.18432252
-0.09590673 0.31774828 0.18776429
-0.07430112 0.17432362 0.19119033
-0.09805407 -0.12296192 0.18597734
-0.26203796 0.29364938 0.16043478
0.03124032 0.14339192 0.17885791
0.21774426 -0.04902771 -0.10000742
-0.01453920 0.07402157 0.18287472
0.08058213 -0.19235976 0.18862535
0.10503364 0.14214955 0.17523643
-0.16530770 0.12971613 0.16985027
0.11493151 0.06534130 0.18048705
0.15546577 0.16420040 0.17562845
-0.01284525 0.34693792 0.18076244
-0.09132383 0.13196127 0.18283787
0.14794651 -0.19022259 0.15563661
-0.11647453 -0.31629470 0.18339112
-0.22892344 -0.19539973 0.16892263
-0.17679033 0.28682745 0.18451764
0.01594700 -0.36042616 0.17427863
0.04381624 0.29075381 0.19136436
-0.25534171 -0.13787441 0.03276799
-0.05848164 -0.00218987 0.17950977
-0.16794208 -0.21000864 0.18261921
-0.22501341 0.20493209 -0.13120176
-0.14716464 -0.08555645 0.16535881
0.02005949 -0.15788591 0.18265827
-0.21038418 0.28216970 -0.13806346
-0.20641576 0.27260715 0.12889287
0.01194715 0.09356172 0.17243041
0.11364727 0.32231453 -0.01296486
0.04325181 0.16362938 0.17059945
0.05040434 0.01480957 0.19051212
-0.23417246 -0.01662213 0.18879043
0.06479693 0.30914134 0.03652707
0.08425276 0.07250856 0.17719196
-0.08201469 0.07129572 0.18277870
-0.10592616 0.28714588 0.16323225
-0.05268675 -0.10895362 0.18318640
-0.13630921 -0.11384607 0.18204132
-0.18310961 -0.28376389 -0.14533162
-0.05590114 -0.11467613 -0.13882802
0.07779315 0.07462066 0.17534336
-0.17322704 -0.16085932 0.18229391
-0.12187746 0.33690685 0.17461018
-0.00786636 0.06283231 -0.14100419
0.08657749 0.29558632 0.16536805
0.10188405 -0.15358087 0.18339580
0.04400308 0.22094662 0.16587511
-0.06808951 0.08633058 0.17069159
0.14191069 -0.31786552 -0.09820987
0.15921918 -0.12466810 -0.01220895
0.23736987 0.13240524 0.09683787
-0.11168644 -0.03922692 0.04474948
-0.13270167 -0.26746657 -0.10754819
0.07649809 -0.33530849 -0.10293107
0.01720819 -0.30755010 0.15956898
-0.05539878 0.08234760 0.17618376
-0.16652966 -0.25508085 0.18913467
-0.05820269 -0.22420064 0.18204287
-0.05479288 0.33989254 0.18710279
-0.18148665 0.00161109 0.17829631
0.15550417 0.08962600 0.15433750
-0.20654270 -0.08819541 -0.02853281
-0.24763466 0.20679992 0.18480106
0.08165462 -0.03792865 0.16782065
0.12228456 -0.20845039 0.18591461
0.17000751 -0.16237591 0.17492293
-0.04976717 0.04198283 0.18324719
-0.11289409 -0.07319141 0.18191788
-0.02531733 0.24919710 0.17509989
0.13542911 -0.25548631 0.18399255
-0.09968458 -0.34219629 0.18683098
-0.03161780 -0.01987040 0.17765404
0.00153828 -0.29018676 0.18305998
0.19165590 0.13869318 0.17445390
-0.17971754 0.14393264 0.17967637
0.26376563 0.07955302 0.17731600
-0.13394679 0.27781433 0.17401786
-0.13320224 -0.20435576 0.18766883
0.11106494 -0.23260571 0.16965705
0.07292491 0.02372484 0.17349318
0.14708072 -0.18107565 0.17744109
0.01254874 0.19893625 0.18213569
0.05041473 0.16886839 0.18215796
-0.12946869 0.09691865 0.18943860
-0.11204521 -0.07310131 0.18467695
0.19616605 -0.17507333 0.18345767
0.23763536 0.03177910 0.05015541
-0.09140207 0.13741723 0.18283956
0.14369784 -0.01504112 0.17388567
-0.19653478 0.26447457 0.16562599
0.08607636 -0.02472760 0.18356991
0.04771634 -0.17901321 0.18288748
0.03785254 -0.12067336 0.18559587
0.00739602 -0.05918458 -0.15617438
0.00327179 -0.04665007 0.18547548
-0.26326883 0.26242793 0.17007747
0.16844621 -0.12362466 -0.11860865
0.07798611 0.05972338 0.17959337
-0.11361714 0.23182350 0.18328796
0.07476810 -0.08051620 0.17758594
-0.00844494 0.01168948 0.18202865
0.14504668 0.02069695 0.18116242
0.00874992 0.20643154 0.17474411
-0.00593984 -0.27057087 0.18659854
-0.12332429 -0.21687773 0.18320911
-0.11425782 -0.19269367 0.17864804
0.01596739 -0.03010460 0.18040767
0.14396167 0.03504780 0.18291901
-0.04095265 0.31400770 0.18098217
-0.00850902 -0.11674744 0.18399696
-0.10204161 0.11781985 0.18256576
-0.09903751 0.00769910 0.17735402
-0.21276242 -0.02215301 0.18317448
-0.21187967 0.17668879 -0.08412172
-0.06631756 0.04923073 0.17119190
0.08065912 -0.30027688 0.18423550
-0.13457523 -0.06551858 0.17577265
-0.14437458 -0.22501551 0.18410459
-0.10147130 -0.10056371 0.16705278
-0.08203503 -0.17040160 0.18893158
0.14457202 -0.13917655 0.17452346
0.15601732 0.31195304 0.17413627
0.11909577 -0.27253768 0.18057756
0.21635211 -0.07299403 0.01819940
-0.08886731 -0.35285127 0.16276890
0.04606837 0.23090878 0.18485254
-0.18180445 0.04936138 -0.11603389
-0.18157203 0.25543731 0.16937695
0.11380895 -0.19995166 0.17991623
-0.09253434 -0.07173152 0.18949589
0.17229617 -0.22746381 0.17981197
0.07825161 -0.30927223 0.17925917
-0.07420744 0.22747558 0.17490605
-0.17493552 0.28755313 0.17954825
-0.13646267 0.13613454 0.18756306
0.16951852 -0.21016505 0.04828770
-0.09581442 -0.36012274 0.18547413
0.10017668 -0.17817934 0.17806646
-0.10921821 -0.25949028 0.18200295
-0.20019594 0.12531178 0.16361508
-0.12034523 0.31156641 0.16342555
