1370
0.18040439 0.20237413 0.15025662
0.12543443 0.23243064 -0.05782376
-0.00755194 0.18230452 0.15389544
-0.05852268 0.31729966 0.16222465
0.12299833 0.31921977 0.15748146
0.05745894 0.13170764 -0.00164498
-0.08239459 0.36071765 0.13597308
0.23213965 -0.22564873 0.15159939
-0.11554623 -0.09913397 0.13777667
-0.14527260 0.32624286 0.16182846
0.04294900 0.31624323 0.15131859
0.08961208 -0.02126972 0.11829631
-0.00166234 -0.00196205 0.05798496
-0.06148598 0.22811460 0.12260191
0.04034936 -0.15108573 0.16530643
-0.18514322 -0.01544626 0.16749336
0.06009073 -0.23918481 0.13109533
-0.12092215 0.31806669 0.14039907
-0.00146642 -0.33995435 0.15872677
-0.03141959 0.05999848 0.15806569
-0.21151912 0.17622653 0.15822105
0.05974161 -0.08309280 0.16254500
-0.09160382 0.12953411 0.16071132
-0.02642448 0.33770871 0.13330451
0.11591540 -0.11669351 0.15059260
0.07160025 -0.20980364 0.16873473
0.10990448 -0.11776614 0.16452280
0.21414909 0.25357538 0.15559143
-0.00721455 0.30967176 0.15721118
0.22192243 0.12751850 0.16082072
-0.06378797 0.26460528 0.16494244
0.05682530 -0.22444138 0.15861045
-0.16566849 -0.11173061 0.15735616
0.10374038 -0.21329132 0.13225460
-0.11530505 0.02094812 0.15346129
-0.02028993 0.08876785 -0.01546877
0.15591764 0.28778619 -0.10858531
-0.10670952 0.29163352 0.15686268
-0.13962859 0.21365336 0.16060050
0.05229098 -0.30643636 0.15637186
-0.03811791 0.23427151 0.16809124
-0.07729224 -0.31726253 0.15969843
0.11825524 0.29926080 0.16154486
-0.10420331 0.07757972 0.16468066
-0.06130341 -0.13398093 0.14839435
0.10906160 -0.41467065 0.14574561
-0.05905065 -0.23646332 0.02838188
-0.16439845 0.15120192 0.15954322
-0.07014383 -0.16120856 -0.00434060
-0.11052960 -0.38653395 0.14268047
-0.11025283 0.10078457 0.15274219
-0.09054242 0.07894897 0.15343560
0.02072237 -0.18537605 0.15856841
0.03546742 0.09337795 0.15862054
0.04064798 0.11266928 0.15006739
0.19219875 0.31156880 0.13466081
0.12106025 0.04084685 0.15655302
-0.01721175 -0.18139090 0.15545399
0.10698840 -0.20371856 0.11074303
0.03305827 -0.16396350 0.14775158
0.08665114 0.17323808 0.13846128
-0.10581414 -0.23145238 -0.02036464
0.15549520 0.18836853 0.15481603
-0.03324602 0.01139045 0.14863750
0.09261300 0.30359840 0.15169469
0.07020789 0.11332195 0.11124779
-0.02355508 -0.39381814 0.13592102
0.00220616 0.18161374 0.16409002
-0.02385753 0.32900289 0.16117144
-0.06836766 -0.24043606 0.16389419
0.08176793 0.03240584 0.16615565
0.17049065 -0.22121747 0.11777794
-0.16567174 0.18877020 0.15369937
-0.16781986 -0.06345202 0.16048028
-0.08395609 0.04257972 0.17558943
0.08773601 -0.22376165 -0.03426156
0.09073951 0.26370928 0.16552298
0.06059648 -0.29838070 0.14717297
-0.05973569 -0.38698700 0.13633844
-0.06106080 0.33602753 0.16749975
-0.00876560 -0.33094254 0.15369672
-0.00956418 -0.00052311 0.17567341
-0.05871662 0.03894100 0.16228826
0.22267242 -0.06988538 0.15492699
0.01115217 0.27941528 0.13516842
0.05638707 0.21162538 -0.05146703
-0.14342323 0.20360282 0.15253073
-0.12275912 0.23945025 -0.14135471
0.20466931 -0.05486944 0.12971105
-0.04887307 0.33104306 0.16733153
-0.01693235 0.15703978 0.15245730
-0.01332815 -0.05644214 0.16080825
-0.07585633 0.01055013 0.15819617
0.12924038 -0.22141656 -0.05764369
-0.10733280 0.31925702 0.15184742
0.17994615 -0.16639483 0.16410968
-0.10848103 -0.15193233 0.16208224
-0.00213002 -0.06494248 0.00981384
0.19576415 -0.08968711 0.16278449
-0.07143592 -0.23484746 0.04699467
-0.05200235 -0.16665722 0.13439213
-0.08095437 -0.05488267 0.16299117
0.00118120 -0.19230588 0.16211796
0.20018990 -0.13738161 0.13497120
0.11537583 0.24412553 -0.03393408
-0.02729963 -0.27863026 0.15990070
0.13471647 -0.27826628 0.13713966
0.00021818 0.11337063 0.16164647
0.14930049 -0.22122940 0.14685996
-0.23361591 0.18745345 0.15608425
-0.22824526 0.21795180 0.15024681
0.15937091 0.38871920 0.13823918
0.20160919 -0.01483687 0.16444869
-0.11922190 -0.29655880 0.14627329
0.14810432 -0.03448329 0.14695878
0.10710187 0.15869901 0.14646836
-0.18326907 -0.32757726 0.14244658
0.00221856 -0.20446908 0.05109470
0.02645509 -0.20825621 0.16682923
-0.09520108 -0.19811225 0.13895892
-0.11727464 0.29744267 0.15578498
0.01805396 0.19077307 0.16257676
-0.23264638 -0.09485318 0.15378524
0.12339378 0.18484902 0.15341970
0.10541633 -0.22296962 -0.01729485
-0.12615167 -0.06553195 0.16232708
0.08326243 0.02498605 0.16572510
0.19520554 -0.17009145 0.16093385
0.05902229 0.05215132 0.17972124
0.00569592 0.25688389 0.13276936
-0.12438437 0.25939125 0.14234965
0.21056120 0.40035507 0.15328088
0.13858029 -0.18943805 0.16001570
0.04795763 0.23015505 0.16162354
0.16352274 -0.36683595 0.16360317
-0.11757465 0.04569165 0.10153893
-0.03122964 -0.23305947 0.15332349
-0.10302161 -0.05266958 0.16182381
0.15865934 -0.05816058 0.16314186
-0.04284118 0.17170815 0.16312847
0.19865209 0.17443289 0.16658856
0.11926611 0.02379563 0.16775945
-0.09273480 -0.25444204 0.12363078
0.09331986 -0.36664283 0.14652577
-0.07176659 0.12589379 0.01036974
0.05248944 0.03394380 0.13798131
-0.23472369 0.03117799 0.16270216
-0.00870482 0.01641429 0.16021042
-0.22183993 0.19624136 0.14944732
-0.10756831 0.08417278 0.17142035
-0.07617491 0.19888791 -0.02501704
0.01358787 -0.35431612 0.14389735
-0.09307054 -0.21319169 0.15797858
0.09975759 0.35196039 0.16410945
0.10753778 -0.06254947 0.14987886
-0.13220096 -0.18680853 0.16188395
-0.15979910 0.03379977 0.16067311
-0.05745928 0.22113293 0.04509615
-0.07864705 0.12597036 0.16414613
-0.00986469 -0.16858053 0.15069780
0.13707335 -0.17508739 0.16020714
-0.14392154 -0.33294415 0.15169191
-0.10897931 -0.27604094 0.12688169
0.15387748 -0.15694441 0.16277239
-0.16684312 0.00951376 0.15307570
0.15997715 -0.29761493 0.16005583
-0.00861260 0.12465689 0.16476846
0.19530892 -0.23264422 0.14205006
0.06223640 -0.15030514 0.00115168
0.04899363 -0.06979588 0.16459839
0.00903670 -0.29329935 0.15658873
-0.04675673 0.05241153 0.00852732
-0.05175221 0.20455436 0.15881990
0.08937646 -0.29343909 0.15426496
-0.06908369 0.15710866 0.16123688
0.04064603 -0.19279924 -0.02747450
-0.20369923 0.25351882 0.14905596
-0.20020188 0.28005201 0.14655562
-0.10904754 -0.09160074 0.16879873
-0.07139926 -0.23166293 0.16066782
0.17671008 0.12223254 0.16930661
-0.15357748 0.31300244 0.14942372
0.02321364 0.18462941 0.16787304
0.17857936 -0.23006651 0.15653126
-0.13961308 -0.00641067 0.15934776
0.20868106 0.27760142 0.16409834
-0.13700710 -0.17113413 0.15920857
-0.09847063 -0.38326794 0.14191851
-0.19707119 -0.21629784 0.14368375
0.07582851 0.08146820 0.16415052
-0.11831287 -0.17783105 0.16263637
-0.19531175 0.01657735 0.15652741
0.13143805 0.22980246 0.16206677
0.22484891 0.25669274 0.13763393
0.24454470 -0.26913747 0.16381103
0.05537628 0.02726582 0.00897837
-0.06520084 0.23017225 -0.08855069
-0.02071387 -0.13696694 0.16328089
-0.08142931 -0.21659136 0.07327527
0.17001377 -0.04669779 0.16708513
-0.04414658 0.22569837 0.09238139
-0.04764671 0.41027236 0.15629141
-0.07526098 -0.18720654 0.10573120
0.12413175 0.26321554 0.15908818
0.11097633 -0.26084262 0.15635863
-0.08044793 -0.09459731 0.12463520
-0.15663846 -0.15615940 0.16487056
0.15386823 0.07397980 0.16631778
-0.09626603 -0.24557519 0.15935174
-0.03021866 0.11060888 0.16330568
-0.09512457 -0.21255757 0.12149012
-0.11625365 0.03347971 0.16029827
0.20976794 0.16282628 0.15126318
0.04724733 -0.04517510 0.03236178
-0.15407848 -0.29274815 0.15077916
0.19044775 0.12400570 0.16190095
-0.16708842 0.17954771 0.14187890
-0.15129693 -0.21067683 0.16146646
0.11057878 0.21519193 0.06824462
-0.12382939 0.22838813 -0.04362932
0.08809434 -0.06224835 0.15573110
0.19523749 -0.11574385 0.15337265
0.08347430 -0.05589929 0.16599131
0.21129362 -0.01738502 0.14831367
0.15911175 -0.14947088 0.13400805
0.13926882 0.05033457 0.14082995
-0.10150971 -0.20677996 0.15764129
-0.08336574 -0.04949003 0.15906875
0.06738766 0.05823774 0.15992633
-0.13890046 0.12081876 0.16874073
-0.11101086 -0.15129459 0.15816338
0.12641200 0.06081614 0.16509894
-0.22822040 -0.24184020 0.14809738
0.17851394 0.32669663 0.11705989
-0.00288142 0.36100504 0.16082241
0.14146701 0.33497459 0.14470910
-0.09815256 -0.22330216 -0.11416596
0.08146267 0.06080270 0.15436643
-0.18655659 -0.12376881 0.15039764
0.12982635 0.26570463 0.13865708
0.11086081 -0.03459292 0.16043173
0.02555118 -0.11241587 0.13899605
-0.14228430 0.15151569 0.15229969
0.12082049 -0.29858163 0.16147539
-0.09612370 0.24707310 0.13623059
0.02248973 -0.15578064 -0.00582015
0.08531348 -0.32176587 0.16180260
-0.03104917 -0.24992393 -0.01256993
0.00120229 0.15418211 0.15670724
0.01128341 -0.35779512 0.15556580
0.04934834 -0.12169157 0.15080699
0.18869328 0.31078026 0.15855317
-0.06868025 0.32977223 0.15667842
0.15589093 -0.23949561 0.15141316
0.05635963 0.18222333 0.15253359
-0.11693646 -0.36769339 0.15254496
0.08384104 0.24423462 0.15402161
-0.13424535 0.25448811 0.15523036
0.13738948 -0.15619139 0.15469448
0.10025158 0.26784378 0.16082737
0.04925754 0.02149033 0.16543327
-0.15417084 -0.11017936 0.16555455
-0.11911830 -0.24297476 0.07002337
-0.21827939 0.06144382 0.13439542
0.00454497 0.12036408 0.16408110
0.16095108 0.15267147 0.15072291
-0.08752514 0.37251928 0.15923539
-0.17688668 -0.09499131 0.16173451
0.13133240 0.22720145 0.15357345
0.19581068 0.25694165 0.15958978
-0.11581493 0.31534916 0.15877669
0.13105170 -0.26588953 0.13789305
-0.12920541 -0.16244689 0.16117941
-0.13285571 -0.08801690 0.13210385
0.11840325 0.19614901 0.11154822
-0.01918857 0.04183511 0.15548503
0.02960168 0.09209115 0.15608144
-0.00396907 0.15098077 0.01503400
0.11253114 -0.23686469 0.16301887
-0.07371168 -0.24808773 0.12157199
0.08335765 -0.36246252 0.15978736
-0.02709649 -0.14155830 0.06025910
0.19063699 0.33018470 0.12063989
-0.02802584 -0.06470969 0.15966335
0.11696826 -0.25414440 0.14941241
-0.08404612 0.40720919 0.14856763
0.10127720 0.30714136 0.15104024
0.17396085 -0.30771452 0.14365956
0.01699091 0.30073655 0.16440213
0.12582810 0.24867651 -0.03743440
-0.07744141 0.23149720 0.09859204
-0.05401077 0.10923214 0.14972654
-0.10720304 -0.12668398 0.15717505
0.12924375 0.21683787 0.07267052
0.18181886 0.37874982 0.15991987
0.08562823 -0.21812947 0.07977344
-0.14355232 0.32255813 0.13785471
-0.12919910 -0.27272871 -0.14448372
-0.11109090 0.39417422 0.15680985
0.13047968 -0.02938362 0.16078594
0.04918987 0.39166430 0.16582353
0.08875412 -0.16901298 0.16345091
0.17113760 -0.05450533 0.14297904
0.14462769 -0.23432443 -0.14265154
0.12224486 -0.20396216 -0.11054013
-0.01106079 -0.31653950 0.14955848
0.11023359 -0.25678760 0.16054973
-0.02248876 -0.02417753 0.14989874
-0.17367248 0.14778642 0.16033988
0.09305354 0.03288069 0.16368519
-0.11100358 -0.31064022 0.10940462
-0.09860340 -0.27868164 0.16554826
0.16244543 0.02007603 0.16071644
0.07862712 -0.19218677 0.09657434
0.09506585 0.35523778 0.14669673
0.06014800 0.16615441 0.16139936
0.18701255 0.31963572 0.14367078
-0.02031279 0.38329649 0.15819862
-0.02774196 0.21053119 0.14629844
-0.07636295 -0.36050671 0.15256371
0.05683493 -0.19137493 0.16398811
0.00602840 0.10292868 0.15990330
0.15989533 0.28716603 0.13399442
-0.11356644 -0.19341820 0.15965524
-0.22634736 -0.20785843 0.13169892
-0.05242063 -0.07423280 0.15211019
-0.23209691 0.10836199 0.16442658
0.02697590 -0.06668660 0.01393193
0.06905492 0.01614384 0.16249381
-0.14269422 -0.01402620 0.16229956
0.21060367 0.29524842 0.15234980
-0.14488325 -0.13351020 0.16155845
0.08793041 0.23468320 -0.07398044
-0.05342038 -0.32474816 0.14083186
0.11900517 0.34269357 0.15917815
0.07308482 -0.00099015 0.15583879
0.10807882 0.07877533 0.16206740
0.01843616 -0.05045768 0.15407138
-0.09343266 -0.04078870 0.15709841
-0.08369654 0.07814461 0.15915540
0.13899682 -0.12553430 0.11400972
-0.07887606 -0.15817618 0.15281211
-0.10615236 -0.21375763 0.11484636
-0.04541471 0.07672741 0.15926045
-0.06615901 0.04856569 0.17597266
0.14292514 0.32464975 0.13646626
-0.17550993 -0.17475092 0.15782300
0.13432167 0.25769797 0.16409691
-0.20652016 0.03646120 0.13298494
0.01920550 0.35370415 0.15028447
0.05891015 -0.25437194 0.15297328
0.14618972 -0.17342336 0.16646197
0.04794777 0.02586801 0.16005528
0.01534234 -0.30551216 0.16556603
-0.10927302 -0.23737133 0.02916726
0.14353187 0.38190132 0.16689295
-0.14893672 -0.19373319 0.16711748
0.22609296 -0.26111555 0.15080076
-0.01304531 0.38040632 0.15658979
-0.08002493 0.11752279 0.16590460
-0.17803012 0.09527348 0.16706817
-0.07810530 -0.26654267 -0.01491547
-0.06896821 0.28340584 0.15739793
0.10265389 0.24084556 0.06273182
0.08587127 -0.17216472 0.15452699
0.10696181 -0.06673294 0.16450131
-0.06482506 0.22674920 0.15888417
-0.06084599 0.11763611 0.15936668
-0.02771326 -0.18387890 0.15955372
-0.08971900 0.17293033 0.06005514
-0.13403276 0.26085365 0.12023008
-0.07284223 0.18066850 0.10674427
-0.08353147 0.12049261 0.15117022
-0.06338552 -0.24364138 0.16329974
0.24291940 0.04704456 0.15859146
0.04170144 0.25136018 0.14297593
0.04373983 -0.25900978 0.15451491
-0.10548885 -0.26389098 -0.14827842
0.14446780 -0.12138092 0.14993528
-0.09789850 0.36468065 0.13955231
-0.12058011 0.30288422 0.15881374
-0.04235941 -0.38050476 0.16749100
0.16675225 0.07726553 0.15952098
0.14756592 0.14570232 0.15606257
-0.12261331 -0.27549988 0.15943182
0.09306568 0.07575608 0.16071926
0.17548665 0.22385171 0.15386614
0.08177337 -0.03606785 0.15766782
0.12133279 -0.40615350 0.14979857
-0.13504675 0.13022327 0.15919890
-0.14123639 -0.29983014 0.16678736
-0.20731634 -0.03062106 0.16253637
0.19300680 0.10549211 0.15993151
0.00966879 -0.06786979 0.15575661
-0.08198941 0.01851995 0.07684767
-0.07223190 0.25576523 0.16049546
-0.09097824 -0.23869932 0.00316398
0.08412592 -0.08695991 0.10912587
0.04264172 -0.22618812 0.15100478
-0.13390987 0.17637962 0.16035257
-0.02811924 -0.26993546 0.14302747
0.00559796 0.08078538 0.04893723
-0.08532250 0.12108529 0.16550565
0.10738003 0.06652142 0.09653377
0.14470083 -0.29184279 0.15401861
0.16306363 -0.06493804 0.15344208
0.10776818 -0.15285507 0.15132090
0.04880884 -0.04081114 0.15431377
0.17299120 0.31293741 0.15779828
0.17982909 -0.03804344 0.15231593
0.16018111 -0.11308978 0.16459230
-0.13409396 -0.13684458 0.11574803
-0.05732395 -0.11552022 0.14222987
-0.06725939 0.37904114 0.15139198
-0.10448166 0.04586350 0.15774815
0.05071942 0.14150405 0.10828315
0.04099964 -0.19349484 0.14685051
0.06601248 0.24083485 0.16820270
0.11480959 -0.14140616 0.14594971
0.15420245 0.24171755 0.15606618
-0.11384787 0.35678178 0.15077648
0.18374251 0.11202172 0.16326967
0.13098904 0.09602593 0.15493187
-0.04753288 0.21522693 0.14963858
0.04650637 0.06117231 0.16302939
-0.06341676 -0.17795753 0.16522957
0.06432153 -0.36976540 0.13745566
0.02132900 0.41713545 0.14572461
0.03152585 0.01692057 -0.02713502
-0.09443650 0.17368086 0.16168797
0.09330998 -0.18414527 0.16177343
0.16127606 -0.28182572 -0.14436580
0.06332565 -0.33274466 0.14087036
-0.16058372 -0.34115076 0.15000160
0.07977857 0.16240889 0.15463488
-0.07952933 0.28697127 0.16177596
-0.00023603 -0.10978054 0.16195907
0.06004634 0.00698706 0.16126174
-0.01003475 -0.12801388 0.16145021
0.00366184 0.38004357 0.16554220
0.06777927 -0.16282073 0.14040183
-0.18118694 0.24329987 0.13516854
-0.11104286 -0.31995228 0.14339826
0.09801519 -0.23087108 0.16211429
0.17506325 0.04142076 0.15784995
0.11941977 -0.23073092 -0.11187378
-0.11584873 0.28299758 0.16064468
0.14354250 0.15346622 0.16135107
-0.18083611 0.24951044 0.12144481
-0.17528912 -0.13235092 0.15042406
0.06353626 -0.22927836 -0.01545634
-0.22696960 0.22490260 0.16472663
-0.12585038 -0.34869233 0.12080994
0.12193453 0.26837695 0.14893791
-0.04141235 -0.25074172 0.13598695
0.15331592 0.19264236 0.15648912
0.19963935 -0.11229801 0.13269524
-0.23019773 0.16121632 0.12832583
0.04887092 0.17911378 0.07065469
0.01475490 -0.31792411 0.13215429
-0.10238959 0.22034720 -0.02155028
-0.11509455 -0.05775887 0.15232366
0.01101521 -0.06663627 0.16111587
0.08590308 -0.37391040 0.14739048
0.04962446 -0.10107498 -0.02433369
0.21587077 0.13301545 0.13755438
-0.07973498 -0.10250337 0.15830195
0.14284337 0.36967945 0.17085433
0.04441434 0.32794839 0.15999912
-0.01756739 -0.21309203 0.12723762
-0.10714653 -0.25794935 0.15724117
0.07617348 0.35320717 0.15720183
0.10779692 0.24469835 0.09002621
0.06119505 0.26025581 0.13923879
-0.11046293 -0.10281330 0.10262632
-0.00598027 0.01925840 0.16104215
-0.05220680 -0.11257145 0.16416207
-0.03671844 -0.21029924 0.16008335
0.18546945 -0.25394097 0.13117838
0.21133021 0.03111239 0.13505542
-0.07590285 0.20684205 0.04388899
0.07433504 -0.12683713 0.15652697
-0.03029574 -0.31333712 0.16331501
0.06698152 0.34550047 0.15700287
0.19339886 0.19535859 0.15744975
-0.04874137 0.19746366 0.16305444
0.09453509 0.04113646 0.16268107
0.15178366 -0.00282352 0.14517137
-0.00682310 -0.05577993 0.13675483
-0.12585421 0.04523643 0.14060929
0.03378984 0.35825306 0.16055982
-0.02907832 0.11401534 0.15425619
0.00310355 0.39284030 0.13467616
0.18772843 0.19311810 0.15855078
-0.03931601 -0.26005447 0.15917328
-0.10466717 0.06926940 0.17011575
0.10814665 -0.41045305 0.15995677
-0.07298563 -0.20890003 0.15227745
0.02327101 0.26161832 0.16222033
-0.08055264 -0.35104284 0.14961860
0.12352286 -0.37975997 0.16178574
-0.07179893 -0.25171739 0.16664988
0.11207448 0.24687773 0.16516215
0.15511984 0.02714374 0.13238962
0.12009710 -0.19940390 0.15873276
-0.11840687 -0.19320469 0.16713175
0.14022782 0.21344867 0.11417742
0.11715338 0.25734699 -0.04643302
-0.19930263 0.11407096 0.16267772
0.19939944 0.04446220 0.14982051
-0.01811399 0.31187749 0.12696545
-0.15523505 -0.28191721 0.15767935
-0.12429257 -0.24826686 0.07193057
-0.15533276 -0.33493182 0.15802105
0.11889347 0.01828212 0.15986417
0.19362827 0.08997966 0.13166088
0.23059238 0.13372117 0.14568521
0.08024727 0.00160658 0.16112450
-0.15000311 -0.05685530 0.15539081
0.06341988 0.29429227 0.17431073
0.01142140 -0.30137932 0.15411663
0.11463597 -0.23597494 0.09944631
0.01897115 0.29573014 0.17306158
-0.01137711 -0.05738110 0.16591342
-0.07390542 0.20342554 0.14620723
-0.20040718 0.16533130 0.16016799
-0.02983802 -0.03181982 0.13330805
-0.17434245 -0.12194897 0.17491509
-0.01875701 -0.24711806 0.15913376
-0.05261452 -0.22904375 0.03018304
0.18822889 -0.23579472 0.15698935
-0.02424392 -0.13433447 0.15115497
-0.02119579 -0.11824753 0.15818682
0.14929986 0.31727672 0.15343000
-0.19997755 0.40600497 0.15270868
-0.20798756 -0.08531912 0.15165442
-0.03292329 0.27711803 0.15512148
-0.06050368 0.30422682 0.16787982
-0.01143411 -0.40756613 0.15846439
0.08739460 0.14881885 0.16574405
-0.12837388 0.32639006 0.16344441
0.14829694 -0.21385667 0.15415740
-0.23551500 -0.18460584 0.15797243
0.20123011 0.23066822 0.14029720
0.22721027 -0.10874580 0.15465721
-0.13201326 -0.24936453 0.13543628
-0.14599770 0.22365537 0.15983492
0.22026786 0.24244218 0.15054220
0.16153163 0.15712360 0.16083634
0.09242441 0.20927477 0.15523630
-0.01576309 -0.19517453 0.16504773
0.08470537 -0.22060478 0.15454316
0.11664514 0.06533404 0.14597210
0.13613716 0.30016032 0.15153359
0.24260749 0.00238111 0.15073569
-0.16396706 -0.25594476 0.16112196
-0.03906404 -0.04857562 0.16127877
0.08284325 -0.13111690 0.15836050
0.02935892 -0.03525923 0.15996313
-0.11744173 0.15684871 0.16067506
-0.12957869 -0.38648832 0.14863935
-0.13070866 0.33922833 0.16465144
0.17814940 -0.15437846 0.15364492
-0.11121719 0.21534951 0.16452363
-0.05442685 -0.17174107 0.15723236
-0.06515203 0.23083964 0.04162312
0.23290907 0.13991338 0.14753062
-0.06184766 -0.38978618 0.16065852
0.06742832 0.09486036 0.16055731
0.08806297 0.11624463 0.16424289
0.08078130 -0.16171698 0.15110123
0.08885087 0.32234150 0.15842174
0.17749485 -0.32011074 0.14378455
-0.18510458 0.26027352 0.16955696
-0.19367681 -0.08545732 0.14112411
0.04795714 0.12187830 0.04847157
-0.10984977 0.07198694 0.16465557
0.01812833 -0.31079599 0.16438223
0.20949055 0.06959917 0.14583470
0.04225587 0.34000617 0.14550415
0.05048010 -0.13995013 0.00793845
0.03992100 0.30532789 0.15897730
0.13688147 -0.14078142 0.15485424
0.05673558 0.20403698 0.04136115
0.02441425 0.14062521 -0.03236612
-0.21059686 -0.34529227 0.16713363
-0.10263268 0.29102501 0.16657479
-0.05687376 -0.02244928 0.15698498
-0.12933148 0.24279466 0.16183917
0.12312393 0.27635023 -0.11775703
0.21032067 0.13786918 0.13049544
-0.03707658 0.17840569 0.15869994
-0.07060642 0.32362473 0.14924954
-0.00609890 -0.17142269 0.15974939
-0.10703984 -0.04841797 0.16098404
0.20380539 -0.18364169 0.15613364
0.06438506 -0.35704106 0.13945997
-0.10810906 -0.28591526 0.16396651
0.04965820 -0.39005789 0.12818307
0.13145602 -0.20890309 0.04868420
-0.15901744 0.27622539 -0.13475610
-0.04895078 0.03873666 0.14531446
0.20260331 0.22068149 0.14632858
-0.15416022 0.06113115 0.15230605
-0.13216761 -0.40667462 0.11632051
-0.19486907 -0.10948069 0.16378140
0.14178784 -0.24247411 0.11693337
0.03502543 -0.13684933 0.16013023
-0.11454495 -0.09821975 0.15699115
0.00252411 -0.37063372 0.14373602
0.12808335 -0.03590108 0.15554206
-0.22110097 -0.24514994 0.14321592
-0.05994686 0.13225570 0.13227107
-0.15908629 0.27154928 0.15662560
-0.11024497 0.10323046 0.16360107
-0.05384963 0.29052690 0.15395805
-0.08172736 0.17890130 0.15488179
0.02373115 -0.39421460 0.15981825
0.05001752 -0.08106150 0.07368869
0.22440863 -0.19035965 0.14165202
0.08951368 0.28889245 0.13994190
0.05155445 0.27517825 0.12859520
-0.14134298 0.22091417 0.14005980
0.11386821 0.00948937 0.15987740
0.09844935 0.13420820 0.15897402
0.07542031 -0.08171177 0.16501579
-0.06615120 -0.18970242 0.02355827
-0.00107721 -0.16211650 0.15669100
-0.06197321 -0.28499460 0.14998296
-0.15293193 -0.23759434 0.14431296
-0.13792443 0.17805915 0.13714436
-0.19253641 -0.18395908 0.14353304
0.01673426 0.11317161 0.16662525
0.15013026 -0.06431274 0.16154681
-0.14785540 0.15395628 0.16219631
0.10009132 0.21294966 -0.03682309
-0.18852130 0.08284102 0.14007144
0.06757968 -0.28721473 0.10183586
0.22307444 0.13825642 0.16085088
-0.09294146 0.10370412 0.15512113
0.02995930 0.14460018 0.13429476
0.06154042 -0.23116966 0.09905050
-0.08526742 0.19534311 0.07701577
-0.07942684 0.31619522 0.16575883
0.05051098 -0.22983378 0.16233398
0.00090246 -0.00599070 0.16893370
0.16139627 0.16521508 0.14471452
0.05326301 0.15059556 0.10673415
0.02630517 0.10585582 0.00920496
0.00419684 0.17344858 0.12078694
0.04786671 -0.17103221 0.14701450
0.17780176 0.31110114 0.15389831
-0.07348655 0.21669261 -0.02332949
0.18247187 0.26774868 0.16302411
-0.01347629 0.00930353 0.16577744
-0.23683137 -0.02818705 0.15704903
-0.03436403 0.27997267 0.16273928
-0.23022056 -0.23885897 0.15999493
0.03505453 0.00641864 0.16549516
0.11689455 0.41379026 0.13367413
0.09682289 0.23843899 0.00757084
0.04172032 0.29692209 0.15769224
-0.09221496 -0.03857785 0.14505547
0.18740520 0.33924961 0.13803720
-0.09612545 0.37650487 0.16287692
0.09761661 -0.21306238 0.02344681
0.07195820 0.20562845 0.16145529
0.10398564 -0.20109317 0.15977238
-0.01110889 -0.15639669 0.16039413
-0.13503319 -0.03170024 0.15725413
0.07792405 -0.06768732 0.16060887
-0.10417998 0.15361583 0.16118321
0.01259283 -0.10210150 0.16219813
0.08608473 -0.28170377 0.15778121
-0.07623424 0.34371710 0.16366898
-0.15657726 -0.21105477 0.15608604
-0.11718331 -0.05134352 0.16486052
-0.10590283 0.01729894 0.16028133
0.16487622 -0.30055690 0.16428132
-0.12657079 0.12603000 0.16867965
-0.22897446 0.25746766 0.16294195
-0.16376111 0.25389615 0.11740491
-0.19623162 0.26032707 0.15356977
0.06277845 -0.36369017 0.15600796
0.13485748 -0.11871761 0.15310583
0.00421661 0.10725082 0.16446726
0.15139303 0.11640947 0.14747386
-0.16972476 0.04698404 0.15956512
-0.04972064 0.27149394 0.15278630
-0.02565316 0.39173162 0.15711592
-0.19015810 0.30822659 0.15129665
0.20564419 0.05043954 0.13680297
0.13855845 -0.32553217 0.11942027
-0.02714651 0.16344534 0.16318379
0.05265540 -0.12329607 0.16068526
0.09229407 -0.39165688 0.15718213
0.11500989 0.33649528 0.16123794
-0.01149682 -0.11093423 0.16188367
0.05942800 0.25282893 0.07394689
0.08084270 0.12414715 0.16149099
-0.02621110 0.12529813 0.15432067
0.21778996 0.10961172 0.14539802
0.11113063 -0.22153965 -0.00893857
-0.02820827 -0.06772033 0.15161854
-0.11902736 0.17144431 0.09995026
-0.04454948 -0.35754138 0.16388822
0.15005001 -0.24663593 0.15480365
-0.03579043 0.07835215 0.01560688
0.20058995 -0.04386827 0.16253227
-0.09243755 -0.22329873 0.10330574
0.03492655 0.14019558 0.15669440
-0.14553329 -0.14758444 0.15686107
-0.01550102 0.11728178 0.15111285
-0.13521968 0.26626402 -0.08456434
0.07461175 0.37195334 0.15768012
0.01058574 -0.23296730 0.16969943
-0.13194761 0.23093283 0.12513396
0.22025786 0.20593525 0.16638371
-0.04534913 0.15369031 0.16655405
-0.10856065 0.24142051 0.05729554
0.04529557 0.22348017 0.16078103
0.11926635 -0.20077482 0.16206992
-0.16558605 0.24445032 0.16638958
0.00476025 -0.29626817 0.14797530
0.12582870 0.22461419 -0.08700173
0.02625716 0.32273561 0.13934354
-0.19988987 -0.13969547 0.13168240
0.13562870 -0.01800206 0.15673169
0.10421520 0.39185300 0.16785681
0.11667816 0.22366393 0.11403247
-0.10941939 0.24351716 0.11189980
0.02350156 -0.21852577 -0.00974322
0.16459587 -0.09562844 0.15022124
-0.15998560 0.02848658 0.13134034
0.13587801 -0.24832471 0.07375605
-0.07007437 0.07488962 0.16091953
0.20317799 -0.27174240 0.16210279
-0.11729573 -0.23641020 0.16771431
0.17930046 -0.01852781 0.17225811
0.22590742 0.03661023 0.16058497
0.10441955 0.16917586 0.16796193
-0.18380117 0.01095409 0.12843643
0.00056363 0.12404646 0.16653742
0.11786335 -0.09267357 0.15427580
0.08551230 0.01548049 0.15089600
-0.14373565 0.03275256 0.16328697
-0.05985792 -0.12713285 0.16256537
0.12874785 -0.34729040 0.16028468
0.04439122 0.38561743 0.14052172
0.09217501 0.34670264 0.14866112
0.09280995 0.19434917 -0.03733211
-0.06968646 -0.22233364 0.08719951
0.06934936 0.20811665 0.09691789
0.18927835 0.20474052 0.15781115
-0.12491040 -0.29552162 0.15573835
-0.17429304 0.20531680 0.14344496
0.02985767 0.10101271 0.15456514
-0.15231879 -0.28204340 -0.10587835
0.12030236 -0.02522217 0.16081123
0.14974791 -0.11271638 0.14345689
-0.18018445 -0.36446130 0.15565076
0.05975184 0.40865156 0.14861329
0.14889136 0.24952874 0.11089172
-0.16371489 0.28877819 0.16062714
0.14078508 0.07628022 0.15705369
0.01185972 -0.11308591 0.16335343
-0.02606095 -0.06952975 0.16124253
-0.00765506 0.11112952 0.08623186
0.01889687 0.09431143 -0.00257094
0.12401447 0.23634145 0.06946713
0.18266676 0.07209010 0.14800549
0.08336803 0.26815006 0.15840490
-0.08395830 -0.24260485 0.09188090
0.10971896 0.15835091 0.14798041
0.15944296 -0.19635785 0.15020877
0.01117946 -0.41666171 0.14683591
0.02661107 0.34339553 0.15477553
0.03412635 0.10090975 0.14731851
0.01012770 -0.08731601 0.16179207
0.00197714 0.33474359 0.15333575
0.19943404 0.06741346 0.15414159
-0.15393695 0.34115323 0.16296944
-0.07043782 0.23259865 -0.03354486
-0.06774379 -0.17543955 0.15943561
-0.18100108 0.09065979 0.14285928
-0.02771431 0.27253971 0.14391781
-0.08852862 0.26955840 -0.12998798
0.06429076 0.10960776 -0.01269648
0.14060563 -0.23817077 0.15459587
-0.13644229 -0.18813732 0.16091385
0.04648313 0.06879859 0.16032290
0.03194235 -0.26331449 0.14707217
0.04093169 -0.04136429 0.14760716
-0.13576673 0.25235391 0.16863389
0.05310825 -0.04108952 0.16135719
0.21707055 0.22496319 0.14161704
0.03683678 0.26082692 0.16187122
-0.18468171 -0.22899057 0.13918188
-0.13878071 0.12910587 0.16889708
0.14085650 -0.34487426 0.12873855
0.14930853 0.22831176 0.13182394
-0.10765931 -0.09283378 0.16348684
-0.00280784 -0.08930919 0.01118390
0.13140589 0.15642920 0.15888342
-0.22443494 0.23592195 0.15308712
0.11074835 -0.14826269 0.15537757
-0.24270023 0.09084927 0.15226880
-0.15630513 0.38070238 0.16325609
0.09970042 0.19438797 0.14703935
-0.00327640 -0.04419387 0.15330721
-0.14556625 -0.04551067 0.16384538
-0.00226917 -0.04635403 -0.00837331
0.03618835 -0.04313669 0.16086188
0.09801230 0.22235921 0.15435836
0.07981440 -0.26367790 0.16346984
-0.20819989 -0.02085393 0.14509520
0.10696556 -0.09129623 0.15650244
0.11512278 0.12385257 0.10813855
-0.01084997 -0.17785625 0.15937649
0.03006324 -0.33254325 0.16049451
0.01013131 0.29896992 0.11713468
0.13759570 0.24083348 -0.13074481
-0.15978639 -0.15879153 0.16045837
-0.15116847 0.08606031 0.13398442
0.10533132 -0.38184738 0.13081627
0.13181564 -0.19275296 0.15526734
-0.16394046 -0.08074432 0.15162422
0.07575706 -0.15993409 0.16660988
0.18177728 -0.33961910 0.16436282
-0.04894327 -0.07302324 0.15621942
-0.03924885 -0.16304137 0.16601865
0.02713153 0.11424747 0.15795961
0.01604587 0.01401160 0.16042982
0.02903666 0.00771396 0.07201800
-0.16005450 -0.27585581 0.12794375
0.20117718 0.15454808 0.15670958
0.13520616 -0.14556025 0.14632174
0.08999248 -0.24369004 0.10958797
0.08509392 -0.01058654 0.16132407
-0.09317060 -0.00580718 0.15727454
-0.19025092 -0.18040270 0.17978027
-0.11109337 -0.18492380 0.15005094
0.06170218 0.33544299 0.16211104
0.08891907 0.06923008 0.15543666
-0.15939149 -0.13313201 0.15404885
-0.15471277 -0.05222724 0.15542676
-0.21598497 0.36252224 0.14542344
0.14718492 0.08078309 0.15308711
-0.14316788 -0.28107318 0.16118731
-0.02662398 0.35054827 0.15560091
0.13198963 -0.30080974 0.16419464
-0.04770875 -0.05973475 0.16501078
0.02666693 0.19898203 0.15646891
-0.10019103 0.04117038 0.15887408
-0.12405236 -0.26689014 0.12195792
-0.03629338 -0.10443434 0.16393027
0.18909040 0.18206808 0.13697249
0.09976162 -0.09262706 0.14320332
-0.05955322 -0.17974362 0.14975524
-0.12144595 0.22963743 -0.02595886
-0.01816592 -0.07129253 0.15889521
0.06342690 0.18311714 0.15209958
0.04560990 0.32161132 0.15952182
0.00255544 -0.25352317 0.16249718
0.03101853 0.04766135 0.13319676
-0.21304637 0.09604327 0.16091567
0.13723290 0.15229657 0.15655123
-0.01988800 -0.03335325 0.15199246
-0.17608009 -0.28537104 0.13396372
0.07816726 0.21373002 -0.03501980
0.08976657 0.40636724 0.15754944
0.15527031 -0.15017676 0.15065704
-0.09799211 0.00106140 0.15884586
0.11007784 0.18585353 0.15032272
-0.17690617 0.13733581 0.15155730
0.09080042 -0.17384523 0.15635484
-0.17810887 0.24244867 0.16145740
-0.05203268 -0.20019656 0.16217922
0.07972869 0.30046803 0.15530254
-0.10512545 0.11185437 0.15454291
0.18240230 -0.19599475 0.15933748
-0.11048105 -0.25139090 -0.02923309
0.08077072 -0.08771993 0.15544210
0.17092304 0.24048236 0.14548284
0.02107016 -0.22868562 0.16122252
-0.00769382 -0.17342594 0.00632716
0.16764709 0.08023837 0.15758570
0.00469131 -0.16961867 0.15297541
-0.04872085 -0.19711047 0.10219707
-0.09168443 0.23607413 0.09623013
0.05542457 -0.33591169 0.11414629
0.14429319 0.33907622 0.12835383
0.10808735 0.18595652 0.13073976
0.03506787 -0.02454961 0.15798984
0.12546107 0.05128110 0.15479693
0.01125370 0.07925499 -0.03387110
-0.03860674 -0.01990912 0.15496783
-0.04768924 -0.06827736 0.14209516
-0.07814407 -0.26521611 0.12008661
0.13583180 0.28623229 0.16538677
-0.04607477 0.22544987 0.11993123
0.18473509 0.07981988 0.14708601
0.10948569 0.23140246 0.02948803
-0.00568079 -0.03725004 0.17691785
0.15605277 0.25679547 0.12969410
-0.12688184 0.08297727 0.16767284
0.12394863 0.08673561 0.15377375
-0.17335126 0.15069076 0.16632216
0.10649077 0.03491571 0.15547252
0.02846150 0.41659674 0.15102009
-0.10194448 0.04139068 0.16005401
0.14395121 0.24939586 -0.15840778
0.22543825 -0.00644210 0.15627134
0.02601212 0.12680206 0.14579833
-0.06088270 -0.05409896 0.16135038
0.07207729 -0.20813175 0.16038330
0.16740626 0.22211972 0.15978381
-0.08330220 0.25867528 0.16611971
0.12345820 -0.27725422 0.16366796
0.12716514 0.01223041 0.15680189
0.15817061 -0.37697765 0.15689814
0.09251925 -0.16395742 0.13490903
-0.19948363 0.16116291 0.13480099
-0.04576491 0.36127436 0.16018054
0.06476369 -0.28191116 -0.00588403
0.03869706 -0.24047042 0.16128787
-0.01291514 -0.41431117 0.15154561
0.09305556 -0.20289284 0.10728911
-0.10681067 -0.23770759 -0.03723258
0.15635128 -0.24650635 0.15974447
0.13336210 0.30385494 -0.14764339
0.07169119 -0.22134936 -0.03178807
-0.14031625 0.21418920 0.10557226
-0.00971000 -0.39424336 0.15835446
0.22081265 -0.01950914 0.15563361
0.20687015 0.14048244 0.16666658
0.04979073 0.15416819 0.07921916
-0.00699336 -0.12449419 0.16168000
-0.11315801 -0.14677203 0.15816820
0.22586720 -0.12905622 0.15014768
0.07753422 0.30736476 0.17279740
-0.01901635 -0.25684875 0.15779106
-0.07389771 -0.39039078 0.17220277
0.12663457 -0.01492817 0.10395605
0.10739657 -0.14839435 0.15810573
-0.05732752 0.11766857 0.16121715
-0.16487131 -0.34863448 0.17136167
0.20095898 -0.32464164 0.13680761
-0.17420405 -0.22067979 0.16253863
-0.03165139 0.16179416 -0.01408946
-0.07062270 0.25188884 0.16665028
-0.06919555 -0.13642240 0.05514633
-0.05596861 -0.21881959 -0.02038613
0.02607097 0.06914224 0.13823742
-0.20282333 0.05186898 0.15383889
0.12646632 -0.05420439 0.14426589
-0.09220014 0.22076559 0.15600538
-0.01890426 -0.26737404 0.15460753
0.09601362 0.17606860 0.14304176
0.18991721 0.16270733 0.17161357
-0.20574373 -0.13163096 0.15617390
0.13921694 0.13777402 0.13835306
0.07483746 -0.30514732 0.16843078
0.05831655 -0.18968962 0.14709948
-0.03348280 0.11203454 0.15519054
-0.00815733 0.12641662 0.15020092
-0.17075959 -0.25746012 0.16030987
-0.09596948 0.21229678 0.13276479
0.03145880 0.01450575 0.15648894
-0.07282548 -0.04081172 0.15542178
-0.21592894 -0.03440017 0.12853950
-0.19799848 -0.00462084 0.14789279
0.16270322 0.33248281 0.13135166
0.02734348 -0.18019339 0.15642060
0.15447833 0.29682341 0.15842769
0.11367950 0.25459051 0.16749756
0.07263799 -0.07107899 0.12415194
-0.12209313 0.25649828 -0.01678449
-0.02980701 -0.17009658 -0.00203235
-0.13205522 0.21441385 0.15469509
-0.06982173 0.24989447 0.16172117
0.14160784 0.00928099 0.16288814
0.21212313 -0.24485579 0.13711251
0.17190874 0.16289595 0.15320624
-0.07121603 0.03912537 0.16394505
-0.18078968 0.33598459 0.16492185
-0.11718541 -0.20667504 0.15859091
0.18732195 0.00637444 0.15549631
-0.14053699 0.22376491 0.15225910
0.18942936 0.05902102 0.12970152
0.09137106 0.02477525 0.14415048
-0.18404603 0.02781809 0.14204557
-0.14608607 -0.04355201 0.17068985
0.13346615 -0.19700174 0.09387219
-0.11088069 -0.27528790 0.14675668
-0.12475491 0.27352527 0.15953004
0.18707436 0.05665279 0.16213821
-0.15722616 -0.27422336 0.15796447
-0.10960012 0.35915488 0.16286048
-0.11798429 0.21068519 0.16904943
-0.10222445 -0.15569645 0.16261370
-0.21567500 0.29752478 0.15401398
0.14386836 0.16078806 0.15582307
0.03984903 -0.03924739 0.01892017
-0.02198368 0.04419915 0.16025236
0.17538923 -0.21431014 0.16771853
0.15779734 0.18746632 0.14756857
-0.19699277 0.12508656 0.14755714
0.18002619 0.07278397 0.15523775
0.16698146 0.19965985 0.15710481
-0.00086901 0.40947944 0.16177049
-0.13666952 0.10942743 0.15437007
0.17059475 -0.08693914 0.13476714
-0.14012730 -0.30958253 0.16337320
-0.22718064 -0.14688250 0.13999395
-0.16646674 0.31454530 0.16017279
0.01835476 -0.33866850 0.14522688
0.03879542 0.32364279 0.16441451
-0.16066311 -0.23836267 0.11595642
0.00370473 0.00972617 0.15487026
-0.20442224 -0.25511366 0.15507451
-0.13934225 0.24420850 -0.09584029
-0.10948241 -0.06623493 0.13766824
0.01751905 -0.19990498 0.15408897
-0.08969545 0.22270229 -0.07560605
-0.06218474 0.17970023 0.12951061
0.09201793 0.08113597 0.15623936
0.10849539 0.23081276 0.06510673
0.16829625 0.23628032 0.15002365
0.05721192 0.05409466 0.16845842
-0.21158268 -0.05248455 0.15352240
0.09490006 0.21446186 0.10936829
0.11945137 0.05035762 0.15234238
-0.09769737 0.15438095 0.15995996
-0.08593073 0.35144031 0.14876172
-0.09004034 -0.02948555 0.15596984
-0.12266563 -0.14566793 0.15921137
-0.07929475 -0.19700077 -0.00743422
-0.07948354 -0.24250048 -0.04177918
0.06027424 0.12793912 0.14976212
-0.14922652 -0.24489403 0.15664876
-0.08336814 0.39198571 0.14967555
-0.07791544 0.22178176 -0.02837641
0.13820083 0.34379175 0.14179617
0.08416249 -0.09713914 0.15898336
0.10461109 0.27141362 0.16023722
-0.04628187 0.10994625 0.14317118
0.10901843 -0.21791765 -0.03778400
0.09710361 -0.23086375 0.05581865
0.18982479 0.19950569 0.15271020
-0.04164739 -0.07349300 0.11146034
-0.11605693 -0.23450303 -0.00218446
0.09779372 -0.24942461 -0.02878339
0.04566200 -0.39011389 0.13487394
0.05336260 0.11763442 0.13818222
-0.18827328 -0.18156315 0.16368426
-0.02855904 -0.20735426 0.15722580
0.01682279 0.40121272 0.16324039
-0.13599260 0.07788219 0.15642105
0.14143206 0.09121357 0.11804487
-0.11666842 -0.14921287 0.10620365
-0.22735539 0.16054788 0.16427729
0.11026713 -0.07089768 0.13064884
0.09101355 -0.19849585 0.15722209
0.18901117 -0.16940704 0.13550016
-0.00285968 -0.07586075 0.16036063
-0.16816062 -0.01471473 0.16048066
0.06839716 0.33301759 0.15390225
0.18746649 -0.29631895 0.15767986
-0.10122950 -0.39280772 0.16027170
0.04140966 -0.03853364 0.14462219
0.02620860 -0.30369529 0.15596856
0.21948947 0.24830459 0.14624700
-0.18300037 0.11978625 0.15316340
0.23430435 0.11140025 0.15622631
-0.08823192 0.29880211 0.15194456
-0.08638907 -0.25461403 0.15854588
0.16404173 -0.18086635 0.14016002
0.13247575 0.01534027 0.14520189
0.17032793 -0.21479389 0.15681097
0.07214963 0.29601493 0.15673369
0.03471923 0.25077358 0.15612023
-0.12797028 0.16161065 0.16164321
-0.11410024 -0.11745481 0.16028677
0.17274560 -0.12996955 0.16000406
0.14413491 0.10411078 0.14103708
-0.10269925 0.09930661 0.15581226
0.17292565 0.05880449 0.14782114
-0.15619291 0.28995311 0.16077153
0.08435969 0.00156508 0.16401127
0.08408286 -0.01014756 0.15818769
0.09249450 -0.06295499 0.16110305
-0.01332374 -0.17742684 -0.02607558
0.01085599 -0.08402502 0.16205168
-0.22289096 0.27059621 0.15990463
0.12098342 -0.24394448 -0.00077286
0.10259999 0.05589810 0.16052714
-0.02601672 0.29495287 0.15615118
0.05303279 0.00989171 0.15227428
0.05274089 0.08188754 0.15802890
0.16040486 0.08757120 0.16509038
0.02764432 0.18477049 0.14696558
0.01854613 -0.27035245 0.16246565
-0.13513054 -0.29648578 0.15813255
-0.07424226 -0.19970450 0.15765442
0.03910297 0.00706879 0.15819310
0.19703135 0.01910397 0.16019224
-0.04620162 0.36305586 0.15189092
0.04117627 -0.18951710 0.15890317
-0.07747746 0.11977196 0.16121516
-0.07924885 -0.04845206 0.15772739
-0.21043141 -0.11366871 0.16305974
-0.06444263 0.22538534 -0.02496318
-0.06539288 0.08591598 0.13977410
0.09355554 -0.34068263 0.16467755
-0.15684147 -0.04256630 0.15153736
-0.10287076 -0.26766613 0.16136345
-0.08426149 -0.09959492 0.14402808
-0.07376227 -0.14887077 0.16689877
0.15410671 -0.10481253 0.14771637
0.17864606 0.34624332 0.14702994
0.13818461 -0.20573205 0.15689024
0.10044459 -0.09655391 0.09766114
-0.07449496 -0.35241351 0.13908446
0.07375000 0.21811771 0.16166802
-0.09415059 0.23787375 0.01239941
-0.16918656 0.25214323 0.15932524
0.12152220 -0.20909914 0.15475065
-0.01422451 -0.05190047 0.15779091
0.20571461 -0.05557460 0.15501781
0.11711522 -0.33554891 0.15910332
-0.02858011 0.20102631 0.14330451
-0.11193687 0.37523392 0.14922595
-0.12438937 0.17719889 0.16454479
0.10975048 -0.20402235 0.10367878
-0.10730694 -0.41956434 0.15688542
0.15168878 -0.22007748 0.15615661
-0.04844573 -0.26393893 0.15768431
-0.18115549 0.12796891 0.14332969
-0.13805929 0.35845923 0.13782091
0.13601200 0.15447550 0.10989770
-0.07935414 -0.11493668 0.15947182
-0.15356521 0.00977676 0.15902333
0.06329353 -0.05890232 0.15997435
-0.04854074 0.24247587 -0.02527819
-0.02489701 -0.13422762 0.16482222
0.01256266 0.02352427 0.16009177
0.07792757 0.11406906 0.17196926
0.00815189 -0.29307243 0.14793275
-0.05399568 0.12157958 0.15308115
-0.22608167 0.17533629 0.16722149
0.18764281 0.15077032 0.16473666
0.04898188 0.01887053 0.15909694
0.02350035 0.07458550 0.15262142
-0.02121112 -0.15194246 0.16572885
0.20705765 -0.13734797 0.16300833
-0.05376567 0.07407384 0.16370697
-0.05115321 -0.09329275 -0.00381173
0.15157345 -0.08350214 0.15322173
0.23222113 -0.02029870 0.16906442
-0.00124519 0.20255768 0.16878529
0.22415075 0.17145574 0.13986227
-0.08423052 0.32476336 0.16716181
0.12047076 -0.08603406 0.12649584
-0.10097294 -0.18225291 0.06780453
-0.17162627 -0.05165943 0.15549128
-0.20249695 -0.31008857 0.14794634
0.16373435 -0.33165944 0.14912555
0.14822389 0.10699806 0.15572669
-0.14166600 -0.25587493 0.16246320
0.10790336 -0.22544608 -0.02800628
-0.03612649 0.00078995 0.15574920
-0.10169253 0.09108213 0.15324794
0.08300872 0.04921280 0.15756392
0.16897048 -0.27017668 0.13601896
-0.07907604 -0.38495857 0.16488816
0.07762580 -0.20313644 0.16061626
0.05877689 -0.36067206 0.16214983
-0.12840429 0.31448901 0.14864442
-0.07032245 0.22061910 0.15434715
0.17938633 -0.19714446 0.15868834
0.00330070 -0.05299431 0.16411218
0.07411066 0.36320442 0.15848529
0.15160391 0.27946419 0.16393089
-0.13831648 0.41644329 0.15376493
0.01677597 -0.39905411 0.14796114
-0.08307239 0.22614639 -0.10099192
-0.12532677 -0.38842380 0.14126530
-0.18583423 -0.11871800 0.15104924
-0.07204548 -0.22509509 0.15684007
0.13801880 -0.03188501 0.15771161
0.17510301 -0.05173131 0.16184616
-0.08125898 0.01092584 0.15719961
-0.12829435 -0.26590070 0.15631534
0.07671311 0.02360119 0.15715079
-0.06552516 -0.12775970 0.16225836
-0.22636618 0.03018539 0.15885915
-0.09879184 0.40061000 0.13393676
-0.05751821 -0.03415813 -0.00399324
0.06261960 0.14954333 0.16084671
0.20653814 -0.17910698 0.17098351
-0.14182749 -0.15777664 0.15988952
0.04558955 -0.33605558 0.16161650
0.16662332 0.32362574 0.16264556
0.12081480 0.15274136 0.11985353
0.03897035 -0.22085911 0.16308317
-0.12381280 0.20584479 0.15884684
0.06323534 -0.38480687 0.16409123
0.07163212 0.20752826 0.14559121
0.09917527 -0.30931556 0.15340233
0.13466230 0.06144458 0.15794829
-0.06386685 -0.33968568 0.15605910
0.19090179 0.01819515 0.15830393
-0.07716014 0.09722193 0.15412480
0.13204283 -0.09387894 0.14798817
-0.07552485 -0.16676822 0.12439706
-0.04987264 -0.07088030 0.15680026
-0.19590575 0.14373082 0.17047997
0.05830978 0.11515493 0.16297409
0.16393447 -0.09295240 0.15793918
0.07096161 0.10215162 0.15630335
-0.09280004 0.09409537 0.15434654
0.03588146 -0.30728754 0.16010654
-0.08409148 -0.33011222 0.14549817
0.15790923 0.25107259 0.13371195
-0.11821129 0.08110604 0.16727559
-0.05276123 -0.00368039 -0.05182474
0.11021504 -0.25137571 0.12867942
-0.14369765 0.00113383 0.15920262
0.13988417 -0.24549443 -0.05514390
-0.05760746 -0.23654869 -0.00852443
0.14333883 -0.06710064 0.16188778
-0.12788792 0.34222400 0.16909471
0.15947935 -0.26573920 0.13449293
-0.06609011 0.10601802 0.13907151
-0.09145179 0.05304886 0.16812319
0.08502657 -0.10333198 0.14731468
-0.18801236 -0.28345147 0.15470918
-0.19757599 0.26169083 0.14410655
0.03698911 -0.12277503 0.15507711
-0.12930652 0.36929959 0.16072938
0.02604457 -0.29926854 0.15798683
0.17301090 0.29770231 0.11418603
-0.03945923 0.25676984 0.14994837
-0.05488010 0.30418101 0.15675096
0.01202872 0.04983621 0.15364501
0.09504928 -0.31190515 0.16224238
-0.01741198 -0.26483500 0.15074237
0.02880546 -0.19774558 0.14463151
0.00647690 0.29634500 0.16318579
0.07324360 0.18062358 0.15809293
0.19062303 0.25221750 0.15356353
0.02054030 0.00226177 -0.00840315
0.06263890 0.36035705 0.14696783
0.04205119 -0.17226666 0.15953389
-0.01375915 0.09425011 0.16567890
-0.09090751 0.20313160 0.00237904
0.07561579 -0.17099179 0.14393887
0.04348599 0.29708633 0.16567284
-0.01083019 -0.10260931 -0.01756138
-0.08522966 -0.19801557 0.00405098
0.19357164 0.19655383 0.13795590
-0.13107707 -0.25328231 -0.00175506
0.02812204 -0.31069577 0.15627994
0.09793308 -0.32986134 0.13925007
0.14267574 0.35764584 0.14252442
0.16668752 -0.28869638 0.14752513
-0.06146722 -0.04240475 0.15236706
-0.15911013 -0.30932015 0.14908902
-0.02067746 0.19364576 0.16183235
0.02292690 -0.38415825 0.14968547
0.05615580 -0.28590357 0.14887282
-0.09669650 0.36560729 0.15159099
0.11841783 0.01707695 0.15393381
-0.01861583 0.21583939 0.15227696
-0.12029079 0.09214085 0.16356994
0.13303067 0.04647910 0.15816747
0.05340075 0.06655893 0.15831082
0.10489720 -0.24786592 0.10994458
0.02103525 0.14635864 0.15100640
-0.18596569 -0.31584251 0.15799944
-0.09886351 -0.15351269 0.15912853
0.08663109 -0.20289683 -0.01727717
-0.11351222 -0.15119885 0.16243541
-0.08686952 0.31421292 0.12570494
0.11128184 -0.25644711 -0.00240641
0.20691326 -0.22195114 0.14923793
-0.21709609 0.03363748 0.15927503
-0.12550679 -0.15930326 0.16349311
-0.08365919 -0.28549048 0.15530151
0.14048700 -0.21590517 0.15114366
0.01445822 0.25870258 0.13219023
0.04434181 0.12175019 0.16346736
0.10124068 -0.17566557 0.16375652
-0.05505738 0.00928663 0.16241898
0.05671524 -0.17431693 0.16012104
-0.03587664 -0.14545551 0.15431863
0.11877245 -0.19461589 0.16825558
0.12079942 0.21146363 0.01617167
-0.05567878 0.08823586 0.15411307
0.05584414 0.30687994 0.15921941
0.09571476 0.24558800 -0.07395635
-0.14401379 -0.16262874 0.14881480
-0.00994282 0.03339117 0.10315998
-0.10595189 0.10317901 0.11344157
-0.21030881 0.33696237 0.14168175
0.13063617 0.39751491 0.15478276
-0.09280196 0.24072370 -0.01228745
0.11468422 0.23593143 0.02578219
0.05086454 0.21431075 0.15986972
-0.05500126 0.02900262 0.15846317
-0.08084564 0.21434724 0.13234156
-0.15703410 0.10277522 0.16750717
-0.17159255 0.11438783 0.16307832
0.14674029 0.21485901 0.12054837
-0.02615707 -0.20159297 0.15335704
-0.14256784 0.40164784 0.15320490
-0.20800768 0.27237520 0.14169493
-0.19015631 0.06606245 0.15989579
0.05417482 0.27401364 0.15775289
-0.04671463 -0.02397108 0.03212676
0.15311550 0.05226380 0.15996009
-0.10783058 -0.30642545 0.15778521
0.05035926 0.35282683 0.15438034
-0.22142290 0.05473462 0.15569715
0.11558221 0.31517276 0.15393296
0.03167401 0.23926251 0.16738144
0.04845135 -0.05736063 -0.02255924
-0.19973280 0.02310490 0.16209513
-0.02411252 -0.20099729 0.11802437
-0.18190551 0.32024407 0.11524661
0.05511753 0.11117765 -0.01927982
0.15561698 0.29411584 0.13990267
-0.07591718 -0.25412148 -0.02000200
0.21322572 0.03385909 0.16297175
0.03599123 -0.22827448 0.14906810
-0.18313459 -0.27921554 0.14533852
0.15327328 0.01725591 0.14682649
-0.15750161 0.17834149 0.15846592
-0.17564493 0.19550790 0.15918908
0.11903489 -0.21008790 0.16616264
0.04458187 0.04566429 -0.00974426
0.06454898 -0.32853940 0.16725242
-0.07665066 -0.09656990 0.15449157
-0.01727691 0.34618211 0.14670309
0.14143233 0.08358143 0.15374503
-0.13734017 0.21205060 -0.14509594
0.14020118 0.33752605 0.16580111
-0.10922576 -0.00684924 0.15467045
-0.15914664 0.33238617 0.12781683
-0.07256736 0.20134422 0.16474552
0.09669770 -0.12798403 0.12725198
-0.01879377 -0.18067943 0.15765481
-0.10381988 0.22361758 0.11582929
-0.14200383 -0.15239401 0.11907959
-0.05076898 0.07340729 0.15187557
0.12268001 0.06663878 0.15573615
0.10362066 0.13877541 0.13838744
-0.21808028 0.18456094 0.15367666
-0.12486357 -0.04243910 0.15536790
0.20375775 -0.01277201 0.15367740
-0.13915202 -0.29788190 0.14975888
0.24013817 -0.04200615 0.15378548
-0.08789243 0.21862933 0.12058972
0.14370571 0.08481580 0.11563434
-0.18038058 -0.02257474 0.15878768
0.14462148 -0.21053948 0.14126207
0.20815593 0.10064736 0.14803030
0.16800739 0.25120741 0.16442652
0.08145799 -0.23401141 0.08807190
