1369
0.12704282 -0.42153996 0.12962602
0.08918098 -0.33376455 0.14530241
0.11894845 -0.24749553 0.15283713
-0.10433872 -0.15564609 0.14963268
-0.06805879 -0.02729569 0.14256909
0.09095220 0.08876533 0.13044414
0.07567290 -0.08289450 0.14879866
-0.03608504 -0.00857815 0.15391992
-0.03030831 0.24176274 0.13936330
-0.10274190 0.11685422 0.14707506
-0.06806144 -0.00058294 0.15214604
0.03281645 -0.00335365 0.15276323
-0.04163007 -0.17855430 0.12904681
-0.14940894 0.02654936 0.15083081
-0.13867748 0.07207911 0.15078792
0.20996717 -0.05990789 0.13548936
0.12681010 0.31877023 0.08437007
0.13478500 0.33028749 0.12692694
-0.20712641 0.06746618 0.14153865
-0.20427550 0.04144736 0.14882006
-0.06662647 0.21516867 0.12536906
-0.17312099 -0.20376909 0.13828769
-0.22647297 -0.00872084 0.14834768
-0.16869707 -0.41495025 0.14994395
0.10860524 0.35671884 0.13076769
0.20565794 0.38726717 0.15557437
0.07204480 -0.21634892 0.12097657
-0.07810291 -0.30742174 0.13901362
-0.05526011 -0.32476160 0.14511000
0.12011089 -0.28249720 0.14873758
0.00360457 -0.33328834 0.13733999
0.18789014 0.08533204 0.14657186
0.15124868 -0.06578249 0.14993708
-0.15235616 0.37292507 0.15049639
0.11631598 0.37614945 0.14291084
-0.05631876 0.35450098 0.14480473
0.11669549 -0.04507980 0.14574125
-0.16066736 -0.16148233 0.14916103
0.06298025 0.35079083 0.13603988
-0.04675249 0.35571989 0.15102780
0.11265409 0.38269529 0.13294609
0.14397618 0.27460867 0.14396919
0.19488715 0.36177781 0.14523621
-0.08056314 -0.24191281 0.14194824
0.11730486 -0.32184523 -0.14961818
-0.14998792 -0.21430835 0.14514594
0.11641152 -0.31697544 0.00380860
-0.20780692 0.20486908 0.14475463
-0.05003249 -0.32285625 0.14857212
0.04938406 0.07095790 0.14474386
-0.05826145 0.16418776 0.13230574
-0.12949535 0.33493984 0.14641961
0.08942989 -0.31597680 0.15995239
-0.15957877 -0.25312912 0.16520979
0.02807827 0.00760635 0.14019401
-0.02737453 0.34240645 0.15740132
0.07078405 0.26202351 0.04023256
0.12971479 -0.38285959 0.14718883
0.14897695 -0.28918153 -0.11044088
0.13861674 -0.18029141 0.14117531
-0.09448187 0.39331394 0.13134807
-0.13898721 0.13873473 0.15080410
0.10989964 -0.36358789 0.14140467
0.05559844 -0.20626235 0.03848711
-0.09157708 0.20432313 0.13874283
-0.10346453 0.00840841 0.13414246
0.12812302 0.08130091 0.14760768
-0.16990194 0.06281498 0.14527732
-0.03386657 0.23858164 0.13906373
0.07021794 -0.25751707 0.14451614
0.04197874 -0.08196238 0.14918073
0.05401346 -0.30390227 0.11946803
-0.10356250 0.30706683 -0.02446868
-0.03861580 -0.35139531 0.14674962
-0.00668357 0.10450505 0.15051886
-0.12785155 -0.11689742 0.15081154
-0.09282112 0.19792667 0.15234706
0.05301502 0.18478113 0.14322029
0.12275598 0.24511527 0.14361277
0.10973939 -0.01803871 0.13545240
-0.02246520 -0.32155678 0.10270850
-0.09414469 -0.12600289 0.12683344
-0.05617906 -0.33455580 0.14256975
-0.01104300 -0.17393643 0.00644112
0.18605587 -0.03057376 0.14207606
0.15866806 0.19575971 0.12312755
0.06459633 -0.42114237 0.15009318
-0.01199256 0.26999953 0.01504621
-0.08425786 0.38509089 0.13707149
0.13098246 0.38286126 0.15038951
0.20486581 -0.20539850 0.15040517
-0.08517341 -0.15559730 0.14560738
0.07049990 -0.27457535 -0.01803170
-0.03007443 0.14942074 0.06898309
0.13032661 -0.16272463 0.14704484
0.03571333 -0.06558309 0.14560245
0.05056145 0.26744577 -0.03915078
-0.00770479 0.09997895 0.14926638
0.15740867 0.26455203 0.13538575
0.09005733 0.30429387 -0.07590827
-0.01908785 0.18824655 0.13954183
-0.05914206 0.32148916 0.14886618
0.10454965 0.33958507 0.14508997
0.03906278 0.16827971 0.03220347
-0.10309774 0.37938347 0.12837020
0.21035217 -0.27696407 0.13855414
-0.09349281 -0.11923802 0.12567882
-0.13799509 0.35936934 0.15056702
0.04288965 0.32377329 0.14027599
0.09540145 -0.01447261 0.11005145
0.00397681 0.00449210 0.08830228
-0.07133695 0.29162732 0.11081181
0.04512294 -0.15411907 0.15388176
-0.16689318 -0.02249522 0.15337114
0.05438424 -0.31149986 0.12336893
-0.11491771 0.36673516 0.12748164
-0.01049956 -0.34552646 0.14792520
-0.04737308 0.08197589 0.14765400
-0.18431142 0.18255275 0.14757277
0.03234308 -0.08397882 0.15209341
-0.10457776 0.13030873 0.14698738
-0.02739903 0.36246639 0.12005338
0.10270406 -0.09756423 0.13778025
0.04871139 -0.22795987 0.15647541
0.09344165 -0.15598527 0.15197048
0.17509820 0.27667639 0.14496358
-0.02690161 0.32824233 0.14814995
0.19582695 0.09507208 0.15034431
-0.05558178 0.25273088 0.15233763
0.06216929 -0.28540704 0.14447300
-0.15026510 -0.14810002 0.15347770
0.10630082 -0.29717052 0.12505874
-0.10309681 0.03195022 0.14260477
-0.02061440 0.14839663 0.02630335
0.15232354 0.33539665 -0.11482862
-0.12415361 0.30400515 0.14696011
-0.13484780 0.23373559 0.14556572
0.03788381 -0.32324368 0.14640644
-0.04710446 0.24656059 0.15757808
-0.08493104 -0.33785686 0.14813584
0.08582239 0.28639889 0.14898658
-0.06818138 0.06468348 0.15044269
-0.04078116 -0.07870056 0.13594544
0.09142639 -0.43163770 0.13049586
-0.07050836 -0.31817436 -0.02386976
-0.15076026 0.15986191 0.14724140
-0.05687585 -0.23066613 0.02896908
-0.09350420 -0.39252126 0.13246818
-0.10598700 0.13664776 0.14145561
-0.09052330 0.09716056 0.14224888
0.02165969 -0.21808797 0.14469519
0.02779209 0.09473551 0.14659210
0.02997222 0.12865612 0.13614279
0.15837613 0.34748617 0.12364212
0.10875046 0.04916508 0.14450590
-0.00695922 -0.20788610 0.13657236
0.12511998 -0.28949147 0.13990735
0.03354324 -0.20342582 0.13464390
0.05402800 0.15194802 0.12799349
-0.12762778 -0.31486663 -0.05111790
0.14385682 0.16611105 0.14560317
-0.03449977 -0.03664096 0.13639721
0.07364575 0.31273490 0.13929640
0.06520547 0.12777320 0.13069367
-0.04581768 -0.39365453 0.12460346
0.00802489 0.16475277 0.14866602
-0.04574555 0.33397090 0.14729293
-0.07466018 -0.23804589 0.15271665
0.07827832 -0.00693977 0.15375952
0.14789233 -0.23324201 0.10972625
-0.18352847 0.19044948 0.14148350
-0.15924370 -0.08918492 0.15136427
-0.09029877 0.03201102 0.16019407
0.02882398 -0.31410182 -0.07192084
0.07288119 0.27678120 0.15342622
0.05059305 -0.31977773 0.13906768
-0.04609461 -0.39940864 0.12290058
-0.05501933 0.35602054 0.15569597
-0.00065315 -0.32128602 0.14161958
-0.03049786 0.01177164 0.15978087
-0.05615008 0.06705251 0.15140998
0.20195457 -0.10005801 0.14437053
0.01703216 0.30171970 0.12132855
0.03942204 0.26906794 -0.01845370
-0.15533288 0.23906253 0.14233154
-0.11813338 0.31248978 -0.13412148
0.17563680 -0.08518595 0.12254849
-0.06451507 0.34182101 0.15630516
-0.03551205 0.17138356 0.13848934
-0.01329488 -0.06201586 0.14892370
-0.05832167 -0.03232555 0.14619556
0.12583685 -0.30317566 -0.07777117
-0.08901472 0.34303877 0.13911606
0.16707200 -0.21696365 0.15194261
-0.10545239 -0.12714158 0.14860359
-0.01255007 -0.09592681 0.03824238
0.17982206 -0.05722637 0.15193003
-0.08681709 -0.31303096 0.01325743
-0.08222608 -0.18562832 0.12083103
-0.08692326 -0.07077321 0.15334694
-0.05779331 -0.22317749 0.15117440
0.17320922 -0.15699401 0.12883414
0.10533661 0.29625970 -0.02986055
-0.01689970 -0.29144591 0.14852875
0.12080619 -0.33854052 0.13452865
-0.02310184 0.12833448 0.14823160
0.13396323 -0.23321728 0.13515206
-0.21724452 0.22260651 0.14628960
-0.21753225 0.24731447 0.13819803
0.17275803 0.38128746 0.12416004
0.19879872 -0.05378459 0.14545798
-0.11704381 -0.29699937 0.13286851
0.12759703 -0.04126098 0.12874572
0.11148522 0.20250651 0.13499342
-0.16955164 -0.35549346 0.13053235
-0.01483240 -0.27524847 0.07931665
0.02992344 -0.22162841 0.15445033
-0.07417426 -0.19170317 0.12903680
-0.09287817 0.30001801 0.14300825
-0.00037067 0.10150729 0.14767262
-0.21654290 -0.09647832 0.14439197
0.10239765 0.20190960 0.14321557
0.09524514 -0.30326408 -0.05039949
-0.11091515 -0.09311122 0.15046118
0.07834426 -0.01277374 0.15199247
0.15995389 -0.18137872 0.14571351
0.04584415 0.02805211 0.16578248
-0.00402486 0.28588349 0.12013738
-0.11558516 0.24070057 0.13039602
0.18983984 0.42268208 0.13970055
0.10374586 -0.23838957 0.14735550
0.02903869 0.18306774 0.15093940
0.15653959 -0.37198335 0.15176457
-0.12369666 0.05695324 0.11729860
-0.04246750 -0.25473836 0.14050466
-0.07815918 -0.03418105 0.14806321
0.13325477 -0.01574170 0.15190002
-0.04757994 0.15476355 0.14982706
0.16586602 0.20268406 0.15169202
0.10985257 0.01831715 0.15608995
-0.12474640 -0.32719827 0.10675170
0.08154211 -0.36844081 0.13547181
-0.06683055 0.20442320 0.04605930
0.03475683 0.02882113 0.12404186
-0.21543500 0.03563240 0.14678724
-0.03092011 0.00053544 0.14738029
-0.20219316 0.25888455 0.14120290
-0.08583037 0.06977291 0.15814751
-0.06930731 0.25766653 0.00497014
-0.00534988 -0.38293442 0.13417330
-0.11569834 -0.27603275 0.15654509
0.13164742 0.36711127 0.14860193
0.09364003 -0.07043786 0.13783090
-0.12957788 -0.17883772 0.14950147
-0.16144635 0.01520199 0.14933449
-0.06264617 0.29475424 0.08774868
-0.10885771 0.13009134 0.15198816
-0.00028799 -0.17662667 0.13835226
0.11862528 -0.19371803 0.14822513
-0.13648641 -0.35247988 0.13767500
-0.11396337 -0.33396834 0.12260137
0.13071318 -0.16121440 0.15141305
-0.14317356 -0.01082836 0.13997027
0.13699791 -0.32831594 0.15134931
-0.01239708 0.11263891 0.15363449
0.17110653 -0.26069662 0.13133168
0.05027606 -0.22130786 0.03178214
0.04122676 -0.06533378 0.15304092
-0.01050764 -0.28861657 0.14384295
-0.05086974 0.06773137 0.04113188
-0.05661093 0.19751015 0.14940007
0.07632121 -0.32095343 0.14294541
-0.08923192 0.14192598 0.14923055
0.03416629 -0.26670584 0.00505450
-0.19372150 0.29227817 0.13495538
-0.18747899 0.30439132 0.13260584
-0.08401485 -0.11830577 0.15514627
-0.07215706 -0.26531851 0.14951347
0.16351430 0.13030995 0.15859674
-0.13182215 0.34167084 0.13974524
-0.01277804 0.22328737 0.15521128
0.15974051 -0.25831366 0.14498900
-0.14568476 0.00650244 0.14704646
0.18023066 0.29846355 0.15230206
-0.11497930 -0.11495467 0.14669546
-0.09767961 -0.39691889 0.12852472
-0.18336406 -0.23199609 0.12949124
0.03479730 0.06108550 0.15140103
-0.10648191 -0.17884928 0.15083575
-0.17782155 0.01414222 0.14695990
0.09745076 0.29716867 0.16030599
0.21127315 0.26860559 0.12607637
0.20652866 -0.27327204 0.15448180
0.03530111 0.07463081 0.03844395
0.00872684 0.29802483 -0.09919749
-0.03338469 -0.12348291 0.15127535
-0.09423831 -0.28957856 0.05363570
0.15048605 -0.10969125 0.15458038
-0.08054124 0.30233574 0.08273868
-0.03550562 0.42421183 0.14637867
-0.10024415 -0.26428723 0.08783950
0.11364904 0.25712210 0.14655921
0.08237320 -0.27870479 0.14425042
-0.06761253 -0.17558222 0.12868512
-0.13595635 -0.17723286 0.15109709
0.13444676 0.08554580 0.15415236
-0.08837506 -0.25292748 0.14694208
-0.03818146 0.05187692 0.15271758
-0.12635970 -0.28516376 0.10811489
-0.13361868 0.04064355 0.14886372
0.19490814 0.21313503 0.14006960
0.01974175 -0.10919827 0.06849050
-0.15262911 -0.29024425 0.13859199
0.15935504 0.09541700 0.14935297
-0.17708623 0.17126951 0.13033505
-0.15263021 -0.21326137 0.14988047
0.10813789 0.29197365 0.04590718
-0.09229638 0.30589458 -0.07328995
0.06903861 -0.08603636 0.14485617
0.17623410 -0.07175793 0.14352578
0.09011523 -0.05910118 0.15301855
0.19082564 -0.02349344 0.12882906
0.14570941 -0.18826769 0.12446421
0.11595058 0.08392406 0.12850939
-0.09334606 -0.26134798 0.14658999
-0.08431958 -0.05549368 0.14729448
0.05134110 0.04635134 0.14560807
-0.12952042 0.15569234 0.15406498
-0.11790819 -0.12563699 0.14943492
0.11299246 0.07456755 0.15293901
-0.21658438 -0.26016152 0.13218567
0.17889234 0.34088901 0.11221129
-0.00762462 0.38655704 0.15085495
0.12824734 0.35624361 0.13846856
-0.05281555 -0.29820490 -0.12700136
0.05943612 0.07731150 0.14113373
-0.16415589 -0.13529727 0.13774410
0.10224161 0.28224620 0.12708221
0.08015522 -0.07192701 0.14902040
0.00354696 -0.10770149 0.12514421
-0.13295349 0.14861992 0.13833702
0.10727651 -0.33118606 0.14781959
-0.12857008 0.31307128 0.12839791
0.01239362 -0.22425807 0.02968895
0.07717077 -0.33724216 0.14892185
-0.01402071 -0.31256637 -0.02545006
-0.01310177 0.13537075 0.14295916
-0.01195224 -0.35215110 0.14555846
0.02070032 -0.19134551 0.13833877
0.15378863 0.34328651 0.14364396
-0.05827711 0.34617853 0.14411080
0.11903404 -0.29497805 0.13960026
0.03815184 0.20274954 0.13823327
-0.12772208 -0.37874842 0.13882127
0.07786478 0.25113145 0.14157107
-0.14417602 0.25209445 0.14658971
0.13208231 -0.15835637 0.14310808
0.06046123 0.23595552 0.14878272
0.02148788 0.02828928 0.15211976
-0.13552667 -0.13378024 0.15589164
-0.11975779 -0.27950290 0.08826925
-0.20425789 0.09506941 0.12584673
-0.00500324 0.13608140 0.15079680
0.13622168 0.13035539 0.13758183
-0.07978011 0.38652655 0.14246683
-0.14854738 -0.07389452 0.14834617
0.11767195 0.27202800 0.14144567
0.16956833 0.28402638 0.15011294
-0.14852597 0.32264790 0.14787532
0.13212758 -0.28558344 0.13096423
-0.12612709 -0.15927863 0.15009457
-0.13595097 -0.06991811 0.12614970
0.11503069 0.27918917 0.11556865
-0.04977694 0.04532071 0.14364910
0.00775818 0.08922850 0.14599557
-0.00748810 0.20267616 0.05176768
0.09408832 -0.28318065 0.15307511
-0.10731509 -0.32303467 0.10465592
0.06834104 -0.38870642 0.14732188
-0.02270444 -0.21365030 0.10567003
0.16663018 0.35439509 0.11173574
-0.03238072 -0.06058005 0.14640944
0.09475644 -0.27695611 0.13799699
-0.08544757 0.42037433 0.13984871
0.08450475 0.35323614 0.15044799
0.15520361 -0.33635014 0.13322243
-0.00073974 0.32759589 0.15292518
0.13326263 0.31952372 -0.05775629
-0.08853091 0.30346778 0.07132302
-0.08729132 0.11353692 0.13475460
-0.10083303 -0.09826170 0.14542556
0.12325509 0.29434937 0.05982404
0.16628951 0.40074760 0.14890353
0.06762984 -0.29980928 0.04746901
-0.14695781 0.36256278 0.12852241
-0.15091091 -0.30622017 -0.13611345
-0.12966730 0.41457653 0.14425345
0.09952056 -0.04782491 0.14981727
0.03500409 0.40788990 0.15333788
0.06428096 -0.16349252 0.15043214
0.15356153 -0.00427612 0.13397685
0.10882671 -0.29637983 -0.13027719
0.13260950 -0.30104673 -0.12169312
-0.00741856 -0.35603982 0.14185046
0.10321639 -0.27313647 0.14933841
-0.05307462 -0.02013104 0.13675781
-0.16151753 0.19174966 0.14341605
0.06035779 0.04921954 0.15405345
-0.11024408 -0.32784426 0.11142933
-0.10194729 -0.32142195 0.15871085
0.13713890 0.02756364 0.14980799
0.07877716 -0.27050695 0.08823062
0.07483770 0.37560463 0.13298742
0.04846524 0.12844640 0.14696407
0.15326679 0.34117365 0.13381588
-0.02584774 0.40199077 0.14496253
-0.04005396 0.20477897 0.13738188
-0.06816173 -0.38563645 0.14235555
0.05890828 -0.17593150 0.15039942
0.01098051 0.08381898 0.14582819
0.12933752 0.33111542 0.12537256
-0.11824944 -0.20847851 0.14858168
-0.21124303 -0.22893552 0.11418484
-0.03459404 -0.05686021 0.14344734
-0.20359279 0.09968839 0.15392002
0.01502009 -0.09172888 0.06283431
0.06461436 0.03009149 0.15211967
-0.12826259 -0.02693904 0.15066464
0.19568747 0.29289052 0.13726757
-0.13868321 -0.15731859 0.15065376
0.08788116 0.31357294 -0.09802875
-0.04769135 -0.34972623 0.12400251
0.09998894 0.35297376 0.14662866
0.03124005 -0.00201732 0.14320524
0.11827615 0.07642955 0.15230781
0.01232907 -0.07006751 0.14202456
-0.07426888 -0.06650087 0.14367996
-0.06207019 0.08458301 0.14762592
0.13300382 -0.12615505 0.12304514
-0.05687250 -0.12811780 0.13883233
-0.11727387 -0.29099557 0.09180832
-0.03785606 0.09102453 0.14582306
-0.06695730 0.07102090 0.16147339
0.14554769 0.32345384 0.12201135
-0.16342318 -0.20012048 0.14741521
0.12110639 0.26044327 0.15313104
-0.18833902 0.02936304 0.11785390
0.01338732 0.35386592 0.13812611
0.07633976 -0.26118243 0.14048398
0.12761584 -0.18457133 0.15542042
0.02325442 0.02505085 0.14435266
0.02054549 -0.33038521 0.15113290
-0.12002599 -0.31436446 0.00278809
0.14339414 0.39156637 0.15566263
-0.16394931 -0.19235298 0.15578507
0.19653535 -0.30635160 0.13661005
-0.01601113 0.37910369 0.14564759
-0.08072284 0.08799945 0.15494521
-0.15134622 0.11948697 0.15396136
-0.08665203 -0.31986469 -0.04035608
-0.04857402 0.26990664 0.14583766
0.09581055 0.31312454 0.05317075
0.06668713 -0.18541642 0.13888302
0.09484029 -0.02974945 0.15365885
-0.06893427 0.23379230 0.15020980
-0.09840246 0.10217558 0.14863348
-0.05665169 -0.22915313 0.14756402
-0.11158012 0.27489889 0.05669810
-0.14415722 0.29111081 0.11312043
-0.10458823 0.26912794 0.09345701
-0.07747254 0.11032171 0.13362156
-0.07843013 -0.25130928 0.15167785
0.22337478 0.04965142 0.14932622
0.03184671 0.21389973 0.13000283
0.01610979 -0.26254404 0.14318445
-0.10404834 -0.32343483 -0.13802354
0.13473076 -0.14389080 0.13761622
-0.07103509 0.36603209 0.12949495
-0.12727903 0.31464475 0.14686026
-0.07015789 -0.38466236 0.15245566
0.13470846 0.07932188 0.14755298
0.13041420 0.17241013 0.14574346
-0.12906817 -0.28439781 0.14910820
0.05091377 0.05972258 0.14835748
0.16545637 0.22688906 0.14217614
0.09046493 -0.09585298 0.13429435
0.10283969 -0.41395146 0.13815284
-0.12076374 0.14783826 0.14598583
-0.13722669 -0.32088149 0.15685348
-0.18883157 0.01014613 0.14863439
0.16334563 0.09523073 0.14689678
-0.00818414 -0.04816128 0.14546390
-0.07665712 0.02368723 0.13037500
-0.09303584 0.27066675 0.14820746
-0.10720003 -0.31661355 -0.02987497
0.07300171 -0.12945805 0.11581066
0.03533963 -0.27605718 0.14092006
-0.11807935 0.18507236 0.14747626
-0.01139646 -0.29272196 0.12619181
-0.02721146 0.09440179 0.10482549
-0.08805965 0.13628627 0.14859731
0.12594271 0.07497738 0.13123667
0.11031190 -0.31269449 0.14505497
0.14317602 -0.06878983 0.14387274
0.07992344 -0.18837167 0.13713931
0.02691417 -0.02811573 0.14281459
0.15363790 0.33177429 0.14541085
0.16925147 -0.11374316 0.13838091
0.14584301 -0.13028654 0.15188360
-0.12933704 -0.15533391 0.11068754
-0.04993074 -0.11263743 0.13348261
-0.07042553 0.40039212 0.13961329
-0.10195506 0.07879986 0.14386645
0.02162200 0.25232452 0.10403922
0.03329595 -0.15085717 0.13250145
0.04997097 0.27202737 0.15827921
0.09164448 -0.16600657 0.13603371
0.14029473 0.27805391 0.14388075
-0.09428799 0.35969207 0.13714530
0.19069573 0.06979252 0.14847043
0.08565377 0.09591460 0.14220907
-0.05004378 0.25523472 0.13678163
0.05761138 0.07835963 0.15134054
-0.04875854 -0.17021486 0.15318252
0.04945000 -0.38984692 0.12789164
0.00347692 0.42251846 0.13319843
0.02914345 0.05026870 0.01355421
-0.08207607 0.18677355 0.14904080
0.07230648 -0.18069616 0.14788528
0.15717153 -0.32723552 -0.13501596
0.10731359 -0.32909763 0.12732425
-0.14977327 -0.37557095 0.13624555
0.06053753 0.10802947 0.14655055
-0.07439782 0.30603909 0.14894769
-0.01211780 -0.17326811 0.14965156
0.06498437 0.00281479 0.14940399
-0.05498065 -0.10223037 0.15187694
0.02293268 0.39518306 0.15988700
0.04545626 -0.16271865 0.13444474
-0.16490547 0.28754145 0.12423102
-0.12235531 -0.34810060 0.13535836
0.07509428 -0.22451344 0.15229940
0.13610175 0.03493507 0.14675383
0.10506046 -0.29421693 -0.10698609
-0.09420329 0.28528279 0.14727210
0.10214184 0.19174965 0.15168138
-0.16554362 0.27853504 0.11104827
-0.17681521 -0.13482456 0.14398624
0.00315292 -0.29924339 -0.02884080
-0.20919469 0.22518820 0.15342373
-0.12828055 -0.36311066 0.11096343
0.12024694 0.27550125 0.13476731
-0.04139232 -0.29237002 0.12600021
0.13677469 0.20526013 0.14310116
0.17211729 -0.12423841 0.12085965
-0.21019286 0.19335735 0.11808998
0.04185165 0.24736293 0.08842087
0.00908877 -0.32403952 0.11938043
-0.10391209 0.28213722 -0.04893663
-0.13217747 -0.08402106 0.14090300
-0.01132892 -0.07187551 0.14961565
0.06607151 -0.39500648 0.13539833
0.02964696 -0.17271619 0.00823499
0.19843274 0.13977481 0.13119939
-0.11345472 -0.06988894 0.14764798
0.12401426 0.37598902 0.15778884
0.04488973 0.33033663 0.14627358
-0.02772009 -0.24963453 0.11656415
-0.08838046 -0.30821690 0.14597715
0.06812262 0.36107770 0.14651565
0.12256572 0.31522965 0.07621750
0.05985109 0.26905847 0.12990367
-0.11212225 -0.13171583 0.12099428
-0.01782882 0.03382180 0.15037765
-0.05705003 -0.13534443 0.15378346
-0.04909595 -0.26620889 0.14794768
0.16314125 -0.31269258 0.13339141
0.18875919 -0.00171407 0.13662064
-0.10748283 0.28933883 0.09613682
0.06504156 -0.12630239 0.14532472
-0.05088482 -0.34936866 0.14950062
0.06887508 0.35255569 0.14501725
0.16571763 0.22567166 0.14670694
-0.05548508 0.21851593 0.14989820
0.07120734 0.01699181 0.15128864
0.14499669 -0.03168349 0.13385488
0.01266722 -0.04273285 0.12418619
-0.15819626 0.07009244 0.13157913
0.01945693 0.38083634 0.14960220
-0.01338424 0.13155237 0.14340961
-0.02106544 0.40607107 0.12201793
0.16528571 0.18895231 0.14819273
-0.01113699 -0.29788482 0.14724109
-0.11036350 0.08723507 0.15708739
0.10560684 -0.42016679 0.14753468
-0.05005545 -0.26638705 0.13990505
0.01995210 0.27066994 0.15179327
-0.07705149 -0.36005095 0.13648167
0.11076100 -0.38721782 0.15046346
-0.08812919 -0.23997664 0.15506962
0.09392266 0.23192747 0.15126930
0.13738534 0.05526381 0.11905245
0.09642737 -0.20509945 0.14627166
-0.13417758 -0.18828812 0.14984965
0.12376281 0.29904452 0.10822546
0.09286413 0.29950023 -0.06306340
-0.18570948 0.14508006 0.14858349
0.16982214 0.03917948 0.13710642
0.01539554 0.30691278 0.11957525
-0.17520973 -0.29278040 0.14642787
-0.13076161 -0.32344097 0.04316428
-0.13361447 -0.35361290 0.14570275
0.08912098 -0.05000875 0.14939849
0.15547048 0.15150756 0.11824550
0.19033983 0.11208966 0.13317639
0.07798265 -0.05990412 0.14975306
-0.13096441 -0.04708378 0.14326502
0.07646757 0.30534863 0.15931885
0.00871728 -0.31225449 0.14402615
0.13483204 -0.30981979 0.09149991
0.02854227 0.31373248 0.15881670
0.02373305 -0.02687124 0.15160200
-0.06662747 0.25968757 0.13510299
-0.18899956 0.17202920 0.14901327
-0.03094118 -0.03885252 0.11875629
-0.15908724 -0.14383247 0.15999907
-0.01825301 -0.24854830 0.14788808
-0.06000282 -0.30812019 0.01234069
0.17117554 -0.25796175 0.14552623
-0.03943050 -0.16081502 0.13963608
-0.02236131 -0.13739616 0.14627427
0.13561939 0.34164295 0.13883278
-0.18995178 0.42433804 0.13942030
-0.17997725 -0.10846144 0.13919024
-0.04016905 0.30444902 0.14329207
-0.04428859 0.32979470 0.15595259
-0.04270729 -0.40707874 0.14802819
0.06574918 0.14397661 0.15173194
-0.10286884 0.35495737 0.14918937
0.11981618 -0.23443846 0.14168179
-0.21973398 -0.21017420 0.14764521
0.17092985 0.26387966 0.13236301
0.18541028 -0.14456211 0.14836556
-0.13012919 -0.27532196 0.12282081
-0.16162473 0.22542983 0.15081553
0.19953257 0.28910500 0.13743399
0.14065570 0.19576621 0.14931896
0.09196322 0.20312387 0.14325398
-0.04945995 -0.22275674 0.15303878
0.04580244 -0.22344604 0.14488135
0.11860747 0.05620082 0.13258225
0.12745789 0.31233314 0.13989867
0.22407177 0.00014396 0.13961855
-0.16257012 -0.27471054 0.14924954
-0.06352253 -0.04382086 0.14983149
0.05337306 -0.18056127 0.14806645
0.04703567 -0.01900345 0.14747229
-0.11571258 0.17641526 0.14910068
-0.11368385 -0.38428757 0.13680050
-0.14446709 0.36707017 0.15186338
0.14692838 -0.16188854 0.14128773
-0.11609584 0.22912994 0.14918609
-0.04759437 -0.18570986 0.14521007
-0.08024600 0.30215213 0.07286750
0.20338568 0.14280085 0.13516000
-0.04286521 -0.40052682 0.15006135
0.04555275 0.06384971 0.14589787
0.07505384 0.09202401 0.15159446
0.05519953 -0.16517836 0.13867410
0.07611227 0.33176330 0.14797442
0.14645791 -0.35762098 0.14382334
-0.16918698 0.27372420 0.16043076
-0.17260429 -0.05587135 0.12407268
0.01481496 0.16739292 0.07280485
-0.09951124 0.07281319 0.14919116
-0.00355770 -0.32264480 0.15361944
0.18561445 0.06170147 0.13434052
0.02344966 0.34785852 0.13480987
0.02813499 -0.21614423 0.00236968
0.01258133 0.33166489 0.14776030
0.12068306 -0.14834832 0.14315504
0.04296555 0.28436044 0.07361266
0.00095561 0.20538078 0.00520771
-0.20160109 -0.36775008 0.15568823
-0.11067032 0.29572123 0.15478088
-0.05006425 -0.04171181 0.14314020
-0.11914467 0.25681400 0.14842258
0.13651352 0.31227988 -0.11400536
0.18021472 0.09342363 0.12132397
-0.04356717 0.14289862 0.14733253
-0.05767603 0.34163192 0.13880342
-0.02891466 -0.14880016 0.14817487
-0.09356479 -0.05096967 0.14978163
0.18851370 -0.21991113 0.14520660
0.08235113 -0.38007629 0.11977468
-0.09482537 -0.33592144 0.14878160
0.03704623 -0.39551321 0.11746203
0.13016774 -0.29680425 0.03745131
-0.16196743 0.32333258 -0.12268022
-0.07037608 0.05355135 0.13256574
0.17547797 0.23028246 0.13058037
-0.17174816 0.03823831 0.14232443
-0.13144426 -0.41048923 0.10445547
-0.18786111 -0.07197744 0.15536185
0.12773499 -0.30973503 0.11546536
0.04663131 -0.07466799 0.14836439
-0.11975778 -0.13411099 0.14564396
-0.01428429 -0.38688600 0.13761722
0.08626524 -0.08922098 0.14576137
-0.20763339 -0.27744186 0.13203393
-0.05961101 0.11645329 0.11792375
-0.16126969 0.27727228 0.14292994
-0.09988807 0.12651826 0.15274781
-0.06969189 0.30382416 0.14438860
-0.11574249 0.18806636 0.14260909
0.00299863 -0.40056977 0.14720166
0.02790552 -0.15052564 0.09507841
0.21162376 -0.22249483 0.12572795
0.05933487 0.31182110 0.12725674
0.03829544 0.29739577 0.12421778
-0.14471604 0.28280976 0.14262027
0.08284564 -0.00318842 0.14717205
0.08000520 0.11924012 0.14603463
0.09100566 -0.15021388 0.15160918
-0.06214595 -0.27842200 -0.02562198
-0.00968803 -0.18854094 0.14564620
-0.04373991 -0.29851115 0.13890779
-0.13092744 -0.23945677 0.13317530
-0.12112223 0.18420482 0.12461496
-0.17874396 -0.18937346 0.13071455
-0.00815502 0.16440777 0.15496615
0.12927321 -0.07440156 0.15136588
-0.12540168 0.20079753 0.14939182
0.11134522 0.29534918 -0.05916972
-0.17811784 0.12627278 0.12578404
0.04900763 -0.31751716 0.10892566
0.21482417 0.12957992 0.14987433
-0.08650033 0.09526518 0.14314325
0.00929733 0.16399918 0.12562619
0.06766664 -0.31086272 0.09342189
-0.11310861 0.27618903 0.06001654
-0.09225056 0.33559868 0.15286587
0.01280356 -0.26076004 0.15143836
-0.00885209 0.05027051 0.15638325
0.12609477 0.20388719 0.13203807
0.01228738 0.18910690 0.10606804
0.00528491 0.15287900 0.05038530
0.02356597 0.26747203 0.12914768
0.02558541 -0.22014248 0.13627569
0.16281670 0.32142794 0.14834207
-0.05820221 0.28448328 -0.02150983
0.17144124 0.27624798 0.14997043
0.00154051 0.04552567 0.15173163
-0.21844387 -0.05176500 0.14635532
-0.01721973 0.28399760 0.15171295
-0.22285652 -0.27897149 0.14604419
0.03290968 -0.00366965 0.15662758
0.09250589 0.42492768 0.12494530
0.11435948 0.29917279 0.03404016
0.00715581 0.30001882 0.14548355
-0.08314346 -0.05242055 0.13291773
0.17353426 0.36744869 0.13050491
-0.10277850 0.39064544 0.15146193
0.07672329 -0.30040693 -0.08432191
0.06489322 0.26652354 0.14720528
0.10270728 -0.22733828 0.14708009
-0.01004793 -0.19137245 0.14568456
-0.11752078 0.01369575 0.14486298
0.06607323 -0.09063469 0.14857471
-0.09734818 0.19294393 0.14764173
0.00558790 -0.10475703 0.15064892
0.06796868 -0.29907489 0.14742137
-0.09415084 0.35984978 0.15118334
-0.14375472 -0.20326170 0.14361228
-0.14045420 -0.05569014 0.15244737
-0.08390041 0.00406571 0.14918967
0.13528931 -0.31948829 0.15486331
-0.11341363 0.18565522 0.15424666
-0.20546520 0.28736556 0.15022025
-0.15670811 0.27022594 0.11545132
-0.18107064 0.28664923 0.14301005
0.03176796 -0.37756231 0.14434034
0.11822903 -0.15565920 0.14104180
-0.00119958 0.13032073 0.15166248
0.15811273 0.17217585 0.13802601
-0.16153648 0.07471133 0.14797656
-0.07595567 0.25841877 0.14201123
-0.01863066 0.41311359 0.14542717
-0.17014703 0.33651206 0.13544978
0.16245431 0.08223273 0.12862773
0.12860659 -0.34648213 0.11037898
-0.03253175 0.14834209 0.14958146
0.05203477 -0.15270691 0.15016676
0.07593035 -0.40775096 0.14783297
0.09735787 0.35240135 0.14944100
-0.02509691 -0.11025418 0.14951934
0.04725214 0.32222018 0.10341962
0.05686291 0.09720947 0.14871882
-0.01916063 0.11752039 0.14386539
0.18592858 0.10935365 0.13493994
0.10850665 -0.27987313 -0.03701761
-0.01246624 -0.03340985 0.13593408
-0.12147944 0.23844254 0.11928680
-0.07859889 -0.37530136 0.15354879
0.13573678 -0.26483548 0.13671598
-0.04833604 0.11025396 0.06027365
0.19070508 -0.03340916 0.15175116
-0.10601604 -0.30420014 0.10880770
0.02912931 0.12425520 0.14350873
-0.11048050 -0.15739121 0.14525609
-0.00841169 0.11118885 0.13853064
-0.12711018 0.32625690 -0.09903467
0.07949629 0.36004290 0.14766265
0.01943969 -0.21303807 0.15649721
-0.14499012 0.29373169 0.12962924
0.18507873 0.22553727 0.15153949
-0.04258507 0.17956975 0.15375699
-0.13027105 0.31529918 0.03544855
0.02830694 0.25518751 0.14857242
0.11076199 -0.26875126 0.15194267
-0.15880442 0.25701770 0.15376820
-0.00621677 -0.30326217 0.13883725
0.12630768 0.30327466 -0.10984141
0.01131353 0.35476473 0.12581070
-0.18675101 -0.17487293 0.12970060
0.11952912 -0.00058747 0.14473079
0.10378999 0.38840687 0.15377468
0.11527912 0.30258298 0.10570584
-0.13347937 0.31787333 0.10465702
0.00180192 -0.29151580 0.02405847
0.14670178 -0.14716832 0.13774930
-0.13953725 0.04330479 0.11516055
0.12655821 -0.32000881 0.04848086
-0.06126510 0.07650700 0.15009205
0.17014615 -0.29433894 0.14999981
-0.10608362 -0.25931638 0.15536466
0.16117525 -0.05196372 0.15773003
0.19924039 0.02745463 0.14926507
0.09757166 0.13530082 0.15491883
-0.16834174 0.01991520 0.11496496
-0.00246205 0.14281778 0.15365551
0.08711132 -0.08814614 0.14129759
0.07876024 -0.05264002 0.13625108
-0.12685588 0.01579381 0.15166672
-0.07207642 -0.08836392 0.15346873
0.12832920 -0.35817841 0.14599279
0.01759762 0.39007083 0.12723731
0.08261324 0.37172964 0.13520059
0.05248998 0.24507636 -0.04033234
-0.07299487 -0.30027619 0.07552892
0.08805451 0.27109155 0.12708040
0.16984031 0.19449753 0.14689600
-0.12353361 -0.31250167 0.14540131
-0.16048303 0.20827083 0.12647298
0.02212221 0.10398662 0.14086257
-0.16338247 -0.33006921 -0.09963015
0.11385823 -0.04694201 0.14756149
0.12292628 -0.14328969 0.12902318
-0.16906066 -0.38337353 0.14620347
0.05457830 0.41306645 0.13452497
0.13424817 0.23987661 0.10113797
-0.15571180 0.31005019 0.15052035
0.12493420 0.06920106 0.14182614
0.00788535 -0.12763034 0.15147214
-0.03067343 -0.08173997 0.14921592
-0.03086837 0.16590510 0.11269282
0.02792565 0.14377788 0.01171840
0.12445524 0.31077462 0.05720913
0.17153852 0.01400503 0.13565825
0.05191870 0.30440712 0.14624962
-0.11233653 -0.31681567 0.06513124
0.10422388 0.15440938 0.13668576
0.14673933 -0.22582471 0.13664560
-0.00421550 -0.41976792 0.13818200
0.02014444 0.36330554 0.14001440
0.03585800 0.10216235 0.13590218
-0.00019402 -0.07757831 0.14905848
0.00612458 0.33765954 0.14485648
0.16817079 0.05616409 0.14177112
-0.15502688 0.34228206 0.15135108
-0.09248373 0.31178531 -0.05804455
-0.04811829 -0.20432636 0.14781514
-0.18077615 0.07519814 0.12943116
-0.02035286 0.29620549 0.13364631
-0.03714553 0.32811341 -0.13441640
0.04936185 0.15678217 0.02249946
0.11295137 -0.21893172 0.14518289
-0.13330552 -0.19322543 0.14670381
0.04946580 0.06431682 0.14920822
0.02032338 -0.27779740 0.13956596
0.02174428 -0.12543476 0.14119436
-0.12610470 0.28780204 0.15450297
0.02675407 -0.00457814 0.14941710
0.18278876 0.25329971 0.13046709
0.06278668 0.28242087 0.15000278
-0.18120697 -0.21530473 0.12463887
-0.14176953 0.20458403 0.15314206
0.11901765 -0.37154245 0.12181492
0.12329499 0.26889688 0.11536293
-0.11677559 -0.10076806 0.15336594
-0.01924098 -0.14911009 0.04007706
0.11212282 0.20646790 0.14697853
-0.21043688 0.26755986 0.13967718
0.08210851 -0.18499312 0.14361879
-0.22190431 0.10489070 0.14572744
-0.16233812 0.38766688 0.15374286
0.07474023 0.16015892 0.13398783
0.00857631 0.00820192 0.14031169
-0.12912065 -0.04754234 0.15294760
0.01124118 -0.09095234 0.03945231
0.05933809 -0.04502688 0.14976192
0.05854249 0.23823120 0.14253722
0.04576956 -0.23481432 0.15155284
-0.19181240 0.01239057 0.12961310
0.09109984 -0.12027741 0.14611652
0.12242937 0.17700425 0.14170693
0.01143771 -0.19347709 0.14663216
0.01697341 -0.33320409 0.14781380
0.00152141 0.31069881 0.10777868
0.07786267 0.30342847 -0.12775946
-0.16715515 -0.19349518 0.15079537
-0.14627163 0.11371142 0.12115620
0.09746806 -0.40265715 0.11791319
0.08402210 -0.22715294 0.14282462
-0.15714151 -0.05541071 0.13860831
0.06746656 -0.17024209 0.15482885
0.15187430 -0.32281181 0.15192787
-0.05604762 -0.06119149 0.14510860
-0.03995445 -0.20616466 0.15430705
-0.01064365 0.13097264 0.14642762
-0.02331050 0.02400371 0.14765260
0.00949414 -0.01834759 0.14047316
-0.15847026 -0.29616395 0.11150621
0.17710854 0.15975742 0.14497904
0.10529245 -0.18787161 0.13364869
0.05248678 -0.27653372 0.10565332
0.08714651 -0.01192607 0.14745811
-0.10390875 0.01372928 0.14409739
-0.18110232 -0.22082284 0.16550934
-0.12310576 -0.21886310 0.13676962
0.03375757 0.34507751 0.15047510
0.06770481 0.02304969 0.14395149
-0.16574182 -0.12996703 0.14495261
-0.13776709 -0.05463271 0.14473039
-0.20662341 0.39217782 0.13183311
0.11156311 0.07244198 0.13888851
-0.13386416 -0.30784169 0.15112554
-0.03865558 0.35452396 0.14290109
0.15699360 -0.30557835 0.14764388
-0.08947361 -0.07520495 0.15366133
0.01354461 0.23498905 0.14438055
-0.08442337 0.03357024 0.14878397
-0.12982300 -0.33158314 0.11676782
-0.03268704 -0.11156365 0.15270372
0.17792085 0.15991457 0.12025426
0.07040623 -0.13333963 0.13251753
-0.05370951 -0.19903390 0.13883901
-0.10592122 0.28729013 -0.04585171
-0.03276495 -0.01880509 0.14828190
0.04521496 0.17097265 0.13896279
0.05719371 0.32065010 0.14464785
0.00139008 -0.24970672 0.15252836
0.01745929 0.06552480 0.12154315
-0.19542974 0.09230077 0.14417018
0.12901384 0.16473040 0.14824197
-0.03664199 -0.03524321 0.13914889
-0.17444780 -0.29549766 0.12408900
0.06882086 0.28636399 -0.00972465
0.08036644 0.41879487 0.14512451
0.12768918 -0.15238163 0.13851877
-0.08385617 0.02935892 0.14565861
0.06918934 0.19761507 0.13365361
-0.17334716 0.15176255 0.14076313
0.07873471 -0.22157271 0.14658578
-0.15003636 0.27958247 0.14742485
-0.05371886 -0.19053662 0.14937356
0.06009271 0.30338311 0.14031312
-0.10872895 0.12109581 0.14281294
0.16273680 -0.21659976 0.14684528
-0.10966815 -0.30949724 -0.05551289
0.07530408 -0.07144479 0.14462458
0.16754359 0.25599921 0.13270059
0.01192117 -0.22732404 0.14994088
-0.01004494 -0.21516833 0.04168960
0.13862586 0.14649719 0.14488126
-0.02653478 -0.19671232 0.14120716
-0.07065541 -0.26255500 0.11417426
-0.10714168 0.30814099 0.08060388
0.06179590 -0.36358273 0.10305864
0.12507926 0.34476978 0.11242710
0.09804922 0.18849085 0.11743889
0.00996433 0.00016373 0.14331053
0.10775748 0.06519097 0.14009851
-0.00351064 0.11025835 0.00416087
-0.01182215 -0.00215051 0.14346887
-0.06538908 -0.07403505 0.12670386
-0.06468657 -0.32884264 0.11537924
0.12472560 0.31972429 0.15328409
-0.06352673 0.30228782 0.10800949
0.16109438 0.07424182 0.13449323
0.09136844 0.30677634 -0.01229107
-0.00430971 -0.03677557 0.16527455
0.16587493 0.29478729 0.15902676
-0.11694682 0.13886100 0.15430903
0.10668773 0.05263013 0.14128517
-0.16457275 0.13532797 0.15665928
0.12796052 -0.03599965 0.14275463
0.02393379 0.42910340 0.13991708
-0.07985091 0.05054514 0.14929274
0.14742105 0.30732012 -0.14721307
0.18536280 -0.01913358 0.14636563
0.02815310 0.13137919 0.13084285
-0.04437645 -0.06488207 0.14878169
0.05285562 -0.26018712 0.15016963
0.16083685 0.23728827 0.15008107
-0.07295109 0.29933068 0.15526183
0.11246668 -0.29831061 0.15202408
0.09040289 0.05002248 0.14340283
0.13097338 -0.39010045 0.14535877
0.06482824 -0.20369431 0.12837686
-0.17729309 0.15671235 0.12986514
-0.05169694 0.37633610 0.14710727
0.03153872 -0.34887335 -0.01159065
0.03029229 -0.25186324 0.14836535
0.00187862 -0.41976756 0.13978046
0.09541218 -0.28789645 0.10190543
-0.11140884 -0.31634662 -0.06414222
0.15480763 -0.26699239 0.14684626
0.13385610 0.35792506 -0.13836201
0.09056982 -0.31162584 -0.09789075
-0.15031824 0.21397559 0.12193777
0.00032343 -0.41088730 0.14554803
0.18753578 -0.00756343 0.14493476
0.17423564 0.16501826 0.15453658
0.02479342 0.23043805 0.10358239
-0.03371972 -0.19695607 0.14970741
-0.10372928 -0.17733976 0.14437237
0.21102306 -0.16927381 0.13718970
0.03687331 0.34681541 0.15817459
-0.00749621 -0.28338242 0.14728288
-0.07291261 -0.40395343 0.15862595
0.12711205 -0.03592404 0.12603967
0.07849535 -0.16906525 0.14651054
-0.04363074 0.08883025 0.15021376
-0.17045572 -0.35616454 0.15485607
0.17831025 -0.35448825 0.12279539
-0.16009556 -0.23888023 0.14848039
-0.01831102 0.21298665 0.00786234
-0.04938024 0.28302076 0.15463167
-0.03725307 -0.20555705 0.06944177
-0.04973060 -0.29580960 0.01097149
0.02989388 0.08969405 0.12501603
-0.19659603 0.07291044 0.14360964
0.11848548 -0.04691628 0.11963405
-0.11181097 0.30557287 0.15024644
-0.03148820 -0.27457702 0.14575309
0.10429770 0.22721066 0.13254380
0.17231451 0.18764600 0.15770140
-0.19470243 -0.12836985 0.14646339
0.10930327 0.15111138 0.12188429
0.06427930 -0.28842971 0.15700099
0.05926706 -0.21308498 0.13507029
-0.04453164 0.11183858 0.14218470
-0.01807547 0.15527451 0.13558058
-0.15551804 -0.27879322 0.14877217
-0.11934218 0.29583552 0.12317827
0.02425607 -0.04431103 0.14241612
-0.05666479 -0.04806206 0.14494604
-0.19695121 -0.04066162 0.12677991
-0.18265820 0.01852575 0.13735273
0.13945907 0.36358270 0.11248776
0.00671046 -0.17474002 0.14367115
0.14365900 0.28260809 0.14392363
0.09974404 0.26167846 0.15839879
0.04253450 -0.06399832 0.11506154
-0.13257459 0.31699139 -0.02257202
-0.02395181 -0.22933589 0.02198448
-0.12997404 0.22172523 0.14176796
-0.05727480 0.25477517 0.14940111
0.12153699 -0.01857822 0.15176395
0.18635027 -0.27714518 0.12560603
0.15080932 0.16807431 0.13963729
-0.05997395 0.01121528 0.15175389
-0.15705773 0.38026756 0.15023786
-0.13128927 -0.19578008 0.14560220
0.17492855 0.00241736 0.14348218
-0.14707811 0.22837789 0.14121826
0.16242614 0.04591033 0.11547183
0.04786130 0.00021162 0.13411704
-0.16506432 0.04334297 0.13098142
-0.12298306 -0.04312322 0.15937211
0.14987195 -0.25693816 0.12213646
-0.10088321 -0.30025810 0.12790436
-0.11170648 0.28990877 0.14686926
0.15518068 0.06712179 0.14919691
-0.15087105 -0.26515183 0.14782633
-0.11065274 0.36968619 0.15092349
-0.10635053 0.24066673 0.15767686
-0.10602580 -0.15798643 0.15093942
-0.20557505 0.33706564 0.13654454
0.12878536 0.16782561 0.14160103
0.02728373 -0.11467246 0.04224634
-0.02152368 0.03102991 0.14574751
0.16108397 -0.22764336 0.15573207
0.13146634 0.20937029 0.13251555
-0.19205044 0.13132073 0.13443686
0.17523615 0.08790729 0.14572950
0.14446548 0.20260131 0.14496771
-0.00287846 0.40673697 0.15062742
-0.10976955 0.09360339 0.14330639
0.13463119 -0.14884163 0.11387345
-0.14079109 -0.33277130 0.15221849
-0.21426976 -0.18134725 0.13110438
-0.15920714 0.32665128 0.14971112
0.01618674 -0.38716918 0.13551505
0.03741407 0.33959612 0.15050539
-0.16921762 -0.28587073 0.13866723
-0.00794551 -0.01750289 0.14269471
-0.19761468 -0.27728030 0.14323507
-0.15250388 0.29819947 -0.09924790
-0.12318014 -0.08844629 0.12423297
-0.02588846 -0.17772304 0.14382148
-0.10800108 0.30811581 -0.10216625
-0.09647427 0.26006672 0.12343289
0.08006938 0.08857186 0.14296749
0.09374602 0.30384371 0.03398715
0.17927447 0.27950644 0.13282801
0.04231272 0.04103911 0.15610525
-0.20288703 -0.05223423 0.14278743
0.07364011 0.29230949 0.09014792
0.07980603 0.00130846 0.13729063
-0.10774540 0.14747959 0.14745291
-0.09025653 0.36019298 0.13176337
-0.08783357 -0.08325431 0.14345126
-0.13081296 -0.13143834 0.14788911
-0.08641464 -0.28470662 -0.10672599
-0.05092213 -0.30045137 -0.06850398
0.04897252 0.12463081 0.13484967
-0.15244600 -0.25561765 0.14701542
-0.08765735 0.39647117 0.13764253
-0.04973491 0.26854920 -0.05719396
0.12644076 0.35091099 0.13090560
0.08571579 -0.13864769 0.14522175
0.05731540 0.27301419 0.13526599
-0.06502391 0.11394297 0.13110526
0.10247457 -0.29929110 -0.06303623
0.08548342 -0.33451539 0.07593331
0.18332151 0.21336588 0.14615446
-0.02683039 -0.12502000 0.11987588
-0.10027502 -0.30872285 -0.00693951
0.06783751 -0.32294488 -0.06852321
0.02793118 -0.40571922 0.11957783
0.02179853 0.11636946 0.12613775
-0.15987170 -0.24456939 0.14868343
-0.02368305 -0.18511911 0.14332636
0.00026842 0.40253597 0.15076028
-0.14179897 0.07501359 0.14376256
0.12443173 0.08521058 0.12085981
-0.12389223 -0.22400795 0.12459445
-0.20371249 0.20921105 0.15191281
0.07652128 -0.07192051 0.12116790
0.06204128 -0.24693219 0.14531335
0.17909196 -0.18106470 0.13205671
0.01385448 -0.05494477 0.14746073
-0.14589666 -0.04534999 0.14972790
0.05468555 0.31948781 0.13909872
0.17448559 -0.30888242 0.14661668
-0.10541954 -0.40644783 0.14885038
0.03299582 -0.04927929 0.13219662
0.03073375 -0.32375237 0.14538890
0.20109665 0.19992751 0.13055527
-0.16224322 0.12981610 0.13979737
0.21597946 0.11486441 0.14380656
-0.08024305 0.31620240 0.13598163
-0.12078833 -0.28331178 0.14815652
0.13148707 -0.23597649 0.13137512
0.10323603 0.04815834 0.13623032
0.14608034 -0.23312598 0.14473471
0.06146437 0.29112032 0.14412422
0.04240756 0.24602529 0.14252974
-0.12475498 0.16107009 0.15200117
-0.09078535 -0.12321700 0.14716940
0.16574243 -0.15593497 0.14720438
0.14971459 0.13756657 0.16463834
-0.09067421 0.14169744 0.14317435
0.16530043 -0.00722875 0.13476303
-0.13869698 0.31172270 0.14854227
0.08561883 -0.01881639 0.15017256
0.08426543 -0.00356489 0.14562955
0.06141987 -0.11438035 0.14984199
-0.01510217 -0.24212281 -0.01803603
0.02906322 -0.11046384 0.15009838
-0.21218556 0.30770525 0.14541221
0.10780823 -0.31411511 0.00886546
0.06095773 0.06326889 0.14714512
-0.03776965 0.30399245 0.14550030
0.06059220 -0.03637431 0.13963218
0.02857507 0.06568570 0.14570712
0.12550236 0.09851495 0.14849597
0.00422424 0.14359787 0.13654400
0.00651061 -0.28515244 0.15075922
-0.14069095 -0.32309312 0.14302653
-0.04527122 -0.22229396 0.14124452
-0.00381015 -0.02297859 0.14523534
0.17052644 0.03769898 0.14737248
-0.04677750 0.36920115 0.13967639
0.04597086 -0.18218899 0.14779958
-0.05531110 0.11140634 0.14817220
-0.04969528 -0.06578763 0.14129405
-0.20350316 -0.10626176 0.14754555
-0.05717620 0.31300390 -0.04887108
-0.07734853 0.09952760 0.12753160
0.09005734 -0.34839407 0.15207925
-0.16163829 -0.03121839 0.14030080
-0.11578237 -0.26344389 0.15028872
-0.11777698 -0.11682740 0.13346811
-0.06366380 -0.13635519 0.15380931
0.12524220 -0.11292362 0.13835745
0.15565914 0.33801767 0.13314699
0.13243847 -0.26821437 0.14562915
0.11313099 -0.16247015 0.14032817
-0.07901398 -0.35641465 0.12883371
0.04484507 0.24243736 0.15028755
-0.09530663 0.29995689 0.02050435
-0.15664881 0.28434047 0.14492458
0.10639954 -0.22748473 0.14009067
-0.04144178 -0.10299539 0.14818799
0.20835160 -0.09700544 0.14193185
0.09366609 -0.35548455 0.14775367
-0.04578198 0.18076873 0.13243875
-0.14876056 0.40454414 0.13720681
-0.10498116 0.18426938 0.15330276
0.09866160 -0.26233181 0.11580102
-0.13911879 -0.42776558 0.14719826
0.12502693 -0.24409972 0.14261875
-0.05355988 -0.28217036 0.14640749
-0.17091112 0.14561391 0.12912554
-0.15115239 0.35668558 0.12755863
0.12604491 0.18779489 0.12648290
-0.10054314 -0.11184685 0.14655718
-0.15444165 0.01493507 0.14833318
0.08279340 -0.07751832 0.14690602
-0.04020849 0.31444350 -0.01005702
-0.02463103 -0.15684983 0.15307622
-0.00427602 0.02806877 0.14819697
0.05879460 0.05871449 0.15820047
-0.01436720 -0.31409544 0.13997205
-0.06616551 0.14244115 0.14176628
-0.20938212 0.18968819 0.15181971
0.14886221 0.14022928 0.15356888
0.03495093 -0.02319001 0.14715129
0.01521947 0.06779420 0.13916084
-0.02396533 -0.13369036 0.14884029
0.19132690 -0.12170369 0.15315019
-0.05571048 0.13024673 0.15105037
-0.04154725 -0.16820250 0.02892239
0.17892054 -0.13393053 0.13917932
0.22262150 -0.12354867 0.16028218
-0.00766923 0.22811593 0.15630482
0.20422865 0.14504753 0.12812287
-0.10473743 0.33481455 0.15547322
0.10890305 -0.11547999 0.11781898
-0.08606851 -0.26447135 0.10398985
-0.16747558 -0.08457296 0.14384153
-0.18390685 -0.35236254 0.13531050
0.13876207 -0.36296040 0.13761985
0.13217917 0.12751773 0.14456269
-0.12169009 -0.28796098 0.15067507
0.09076299 -0.30097407 -0.03719470
-0.04379918 -0.02215152 0.14479963
-0.12088350 0.04308128 0.14201318
0.04411754 0.04215984 0.14658485
0.15544373 -0.23422380 0.12285075
-0.07668696 -0.39853942 0.15193254
0.07148135 -0.21926138 0.14797859
0.03785829 -0.39051133 0.14795820
-0.11827494 0.33098719 0.13841268
-0.09315620 0.21906614 0.14177595
0.14171436 -0.19490193 0.14796093
-0.00135263 -0.02825771 0.15315902
0.05619420 0.35861239 0.14783508
0.12146117 0.30589527 0.15224147
-0.13352408 0.42750114 0.14013487
0.00981131 -0.40988079 0.13675192
-0.11391281 0.30544865 -0.12116340
-0.12453629 -0.40847027 0.13549039
-0.17653492 -0.14228600 0.14055507
-0.07742245 -0.25634357 0.14457181
0.11969291 -0.03381563 0.14715660
0.16847931 -0.07981530 0.14698929
-0.07179374 0.04135802 0.14467752
-0.14616874 -0.26056734 0.14597081
0.06417358 0.02369690 0.14488360
-0.07291731 -0.17464420 0.15071817
-0.22062169 0.02780200 0.14845069
-0.11364731 0.41250873 0.11963797
-0.05323742 -0.08280228 0.02204887
0.03042373 0.13706005 0.14899477
0.19536600 -0.24101494 0.15796632
-0.13850659 -0.19101706 0.14823920
0.03417092 -0.34767926 0.15236410
0.16353585 0.32830361 0.15054855
0.11585306 0.21397172 0.11783028
0.04006657 -0.22681312 0.15051924
-0.11324035 0.21637206 0.14713138
0.04909880 -0.39078438 0.15310657
0.04695155 0.23401432 0.13656890
0.06928824 -0.30381036 0.13990632
0.12075898 0.00445049 0.14668034
-0.05003979 -0.34152567 0.14097615
0.17676547 0.00655881 0.14861980
-0.09437570 0.06213323 0.14378686
0.12328162 -0.08964223 0.13769597
-0.05917961 -0.17394152 0.11521736
-0.08436768 -0.10078903 0.14632310
-0.17804691 0.16502178 0.15556362
0.03748070 0.12366495 0.15102589
0.12936787 -0.09060006 0.14630911
0.07665209 0.08341223 0.14562257
-0.07590571 0.08992091 0.14149645
0.02103465 -0.35258856 0.15121669
-0.06257412 -0.36679748 0.13361046
0.12734883 0.27311108 0.12102079
-0.12215333 0.08580284 0.15071791
-0.04798074 0.04483150 -0.01496869
0.11692798 -0.28772092 0.12616880
-0.11931089 0.00564679 0.14561957
0.14088722 -0.31738317 -0.07757336
-0.04633874 -0.29426396 -0.00508301
0.11529990 -0.09415778 0.15187746
-0.14525349 0.36779162 0.15618002
0.15577103 -0.25987425 0.12980559
-0.04438123 0.10095394 0.12606665
-0.11243714 0.05936866 0.15390979
0.05792208 -0.10745834 0.13478561
-0.18385531 -0.30571285 0.14115909
-0.17526935 0.28887004 0.13581406
0.02603712 -0.12688380 0.14187652
-0.13152632 0.38530412 0.14928465
0.00661929 -0.32019380 0.14663157
0.15677905 0.33586270 0.10967128
-0.02551112 0.27719444 0.13920841
-0.05929846 0.33352309 0.14452666
-0.01843197 0.05936294 0.14133100
0.09525314 -0.33569697 0.14957093
-0.03525986 -0.27915618 0.13887013
0.05277806 -0.24239495 0.13356069
-0.02069089 0.31290251 0.14943086
0.07194294 0.21622585 0.14598152
0.18005385 0.28070959 0.14406604
0.02262563 -0.05811304 0.03153837
0.04706313 0.37762135 0.13371316
0.02121172 -0.17916086 0.14966129
-0.01781249 0.07241282 0.15438777
-0.09783377 0.27999070 -0.09709209
0.07528398 -0.19875994 0.12965500
0.02815704 0.31874487 0.15288401
-0.01488408 -0.13599777 0.02445045
-0.09192072 -0.28485149 0.00397546
0.16599616 0.20120159 0.12393471
-0.13786612 -0.32739511 -0.01203637
0.02466743 -0.33767286 0.14494142
0.08307698 -0.35293445 0.13003260
0.11617868 0.38488001 0.12882417
0.15720940 -0.31757265 0.13575125
-0.06703690 -0.02637377 0.13720109
-0.16017461 -0.31592798 0.13601698
-0.02345978 0.18748339 0.14879964
0.00310882 -0.40581256 0.13885526
