1369
0.10702344 -0.11428609 0.14760847
-0.10799131 0.29031721 0.13703597
0.09417246 -0.10905382 0.13108200
-0.01714815 0.12167585 0.14724851
-0.01169597 -0.24739467 0.12440073
-0.04694166 0.33805937 0.15164299
0.19561645 0.07196358 0.11622295
-0.18097712 -0.02198035 0.12762353
-0.06110048 -0.21942259 0.13581392
0.00311425 -0.07730388 0.13032159
0.00459126 -0.22071810 0.13866150
0.00931452 0.31459260 -0.00041100
0.15349030 -0.25903070 0.11249211
0.02281226 -0.22857895 0.14905789
-0.17949638 0.21515882 0.12530181
-0.13111442 0.20885143 0.14879912
0.08898173 -0.28883415 0.14586550
0.20184790 0.22655407 0.12660599
0.13416758 0.39661625 0.12954484
0.07395587 0.19718680 0.14102276
0.10656416 0.38600054 0.14115252
0.06157033 0.41868579 0.15164657
0.00185456 -0.04567536 0.14890841
0.08585184 0.22965854 0.14381568
0.09439179 0.31520629 0.14613897
-0.02899647 -0.27820849 0.12602736
0.01690783 0.39259893 0.13575938
-0.10376047 0.30187649 0.03436923
-0.11876653 0.35112858 -0.09981860
0.02242526 -0.02496211 0.14659737
0.09458783 -0.10145050 0.14128771
-0.09492219 0.04970271 0.15044349
0.07181621 -0.06092422 0.10886256
0.22825257 -0.29556870 0.13759446
0.01219676 -0.08662815 0.13696536
0.18804313 -0.41829240 0.12130934
0.02212925 0.21885878 0.13122211
0.14980167 0.05036709 0.13515097
0.00772393 -0.13237807 0.14266497
0.07809745 0.31820169 -0.04353546
0.11217333 -0.24583153 0.11706597
-0.03684993 0.24598005 0.14233990
-0.19694713 -0.05406675 0.13562217
0.06341824 -0.31705847 0.15017191
-0.07449060 -0.10114098 0.14568047
-0.01694917 0.02230848 0.05318741
0.15380481 0.29486221 0.12290034
0.21706858 -0.33609101 0.13444462
-0.14576393 -0.07605676 0.13545811
-0.08136068 0.30966434 -0.02918849
-0.13801308 -0.00803176 0.13483578
-0.06092839 0.30258429 0.13880615
-0.07942032 0.22336636 0.13992810
0.15367213 0.31319019 0.14227149
0.04147816 -0.02176479 0.14240958
0.05473882 -0.16979510 0.13295420
-0.16300878 -0.08593508 0.13290712
0.06616911 0.35249445 0.14140715
-0.09137332 -0.31864411 0.14675856
0.03647884 0.32488829 -0.02592888
-0.01707202 0.12246048 0.14042953
0.12705407 0.29193631 0.14606883
0.19892953 -0.05458893 0.12176017
0.21276291 0.15626615 0.13814016
0.10301425 -0.26859990 0.15302984
0.07278562 0.30993846 0.12773079
-0.22007203 -0.20723656 0.14758852
-0.13111484 0.04500245 0.14356944
0.11481450 -0.33236009 0.15016805
0.10322139 -0.31641367 0.10621161
0.07494202 0.26545712 0.13746160
-0.18206435 -0.10147721 0.13949530
-0.05100137 -0.09170255 0.14628261
0.00521618 0.21565002 0.14670242
-0.04171085 0.27799919 0.11111076
0.12353939 -0.32971913 -0.10259634
-0.06175654 -0.35002699 0.13707384
-0.20310190 -0.03357474 0.13751459
0.04390740 -0.30562431 0.14396293
0.09361096 -0.11972765 0.15160723
0.09898137 0.30976427 0.10744046
0.08986150 -0.02453077 0.14041576
0.08280589 0.21134314 0.13195950
0.11469691 0.31205618 -0.03409632
-0.15294442 0.10653277 0.14221452
0.00579025 -0.41125026 0.13751258
-0.11337082 -0.34883296 0.12134244
-0.18009722 -0.11804643 0.11597858
-0.04051950 -0.11258821 0.08164237
0.00143396 -0.32641214 -0.12721068
0.03326527 0.30984080 0.14447111
-0.13878737 -0.12068591 0.14715448
0.06488192 0.22150797 0.14922877
0.03280256 -0.04767153 0.12688205
0.03932242 -0.23097983 0.09548439
-0.20107602 -0.23775624 0.11811274
-0.21307161 -0.33005202 0.14897704
0.11937387 0.32364520 -0.07366636
-0.04843352 0.26557216 0.14612474
-0.19236320 -0.05561971 0.13163759
0.01537495 -0.33725369 0.14861590
-0.00937852 0.20108664 0.14763954
0.02675154 -0.30905053 -0.00550405
-0.20306465 -0.19263318 0.12803695
-0.00598141 0.26677963 -0.01249185
0.02363083 0.19490716 0.14213352
0.13009384 -0.02018173 0.13709761
-0.03005547 -0.21270192 0.13820675
-0.16563986 -0.22702466 0.14425012
0.04284181 -0.31480923 0.14463359
-0.16899993 -0.29908288 0.11060143
0.12874427 -0.42170468 0.12572350
0.09148072 -0.33417314 0.14080496
0.12097096 -0.25229359 0.14870517
-0.10530387 -0.15325978 0.14578253
-0.06806383 -0.02921624 0.13902487
0.09160770 0.09258243 0.12613766
0.07689158 -0.08805112 0.14477241
-0.03834726 -0.00917063 0.14920650
-0.03011315 0.24723768 0.13572277
-0.10692775 0.11797653 0.14225009
-0.07126483 0.00145710 0.14838055
0.03610340 -0.01200995 0.14882644
-0.04459145 -0.18137448 0.12538393
-0.14854966 0.02487748 0.14701034
-0.13879257 0.07249237 0.14675802
0.20953563 -0.06106260 0.13188767
0.13099961 0.32225260 0.08334897
0.13677335 0.33183646 0.12316643
-0.20545861 0.07141465 0.13648266
-0.20316359 0.04667633 0.14532498
-0.06861879 0.22065213 0.12151975
-0.17557138 -0.20074275 0.13325411
-0.22979452 -0.00764579 0.14438486
-0.16758470 -0.41591996 0.14557657
0.10804674 0.35700494 0.12650323
0.20881246 0.38869318 0.15106240
0.06609547 -0.21292539 0.11679871
-0.07588919 -0.30873102 0.14210139
-0.05531744 -0.32327831 0.14134276
0.12380897 -0.28316769 0.14472313
0.00780523 -0.33094800 0.13296445
0.18634424 0.08149559 0.14264856
0.15189397 -0.07402927 0.14627515
-0.15179725 0.37469095 0.14683719
0.11538653 0.37477016 0.13897523
-0.05496959 0.35221523 0.14074989
0.12008329 -0.04446413 0.14178988
-0.16265073 -0.15499564 0.14515948
0.06050486 0.34802267 0.13179609
-0.04712094 0.35761678 0.14625052
0.11567791 0.38061932 0.12974508
0.14505547 0.27448744 0.13953516
0.19840911 0.36178592 0.14080706
-0.08133697 -0.23974140 0.13794334
0.11842550 -0.32388538 -0.14672083
-0.15132368 -0.21522878 0.14034837
0.12188783 -0.32000604 0.00285858
-0.20741005 0.20551723 0.14056407
-0.05397237 -0.31946558 0.14434341
0.05077355 0.06728785 0.14103994
-0.05285794 0.17217034 0.12793683
-0.13107187 0.33549243 0.14217217
0.09058843 -0.31655705 0.15585065
-0.16112253 -0.24987486 0.16026315
0.02680480 0.00522083 0.13724595
-0.02610885 0.34507358 0.15343909
0.07716064 0.26471433 0.05100673
0.12684688 -0.38112444 0.14341184
0.15417810 -0.29019952 -0.11033419
0.13905367 -0.18203446 0.13750529
-0.09559146 0.39375433 0.12762779
-0.14380673 0.14177391 0.14690354
0.10700859 -0.36251056 0.13781911
0.05617112 -0.21720538 0.04951100
-0.09207359 0.20848370 0.13463038
-0.10358924 0.00883980 0.13040856
0.13185886 0.08637783 0.14396542
-0.17186384 0.06089109 0.14134285
-0.03140514 0.23408847 0.13418327
0.07617220 -0.26121527 0.14029703
0.04414765 -0.08653000 0.14538506
0.06003615 -0.30610195 0.11373967
-0.10603502 0.30704939 -0.01222499
-0.03782504 -0.35252994 0.14319742
-0.00327865 0.10236332 0.14634150
-0.12593041 -0.11638874 0.14715672
-0.09408364 0.19705757 0.14822446
0.05743074 0.18508732 0.13918251
0.12432805 0.24627262 0.13980593
0.10752307 -0.01342673 0.13119324
-0.02054606 -0.32467520 0.09885621
-0.10123011 -0.12545538 0.12286171
-0.05926564 -0.33427823 0.13841562
-0.01023525 -0.18550771 0.01723530
0.18261495 -0.03175031 0.13803822
0.16020507 0.19665945 0.11976247
0.06340395 -0.41830805 0.14649406
-0.01541009 0.27340570 0.02517261
-0.08006725 0.37824863 0.13309081
0.13300017 0.38140008 0.14657974
0.20818901 -0.20403916 0.14667150
-0.08609976 -0.15794960 0.14198706
0.06603029 -0.27790397 -0.02379870
-0.03256226 0.15599978 0.07983945
0.12946880 -0.16720420 0.14328107
0.03694323 -0.07298721 0.14171983
0.04457425 0.26952723 -0.04302479
-0.01070432 0.10135811 0.14520417
0.16054547 0.26950395 0.13105063
0.08795051 0.30872244 -0.08094486
-0.01973920 0.19243181 0.13479790
-0.06123571 0.31990066 0.14437105
0.10593775 0.33956575 0.14088447
0.03621146 0.17447940 0.04359306
-0.10310042 0.37913668 0.12498303
0.21195689 -0.28031528 0.13455701
-0.09254308 -0.11955402 0.12252329
-0.13963437 0.35855910 0.14681323
0.04509587 0.32449430 0.13631280
0.10143147 -0.01553742 0.10769214
0.00377081 0.00585106 0.09740449
-0.07260153 0.29466730 0.10759839
0.04892476 -0.15359271 0.15017143
-0.16411212 -0.02295784 0.14837369
0.05443197 -0.31572038 0.11931661
-0.11493330 0.36894977 0.12404694
-0.00855292 -0.34669176 0.14381744
-0.05100832 0.08403142 0.14405438
-0.18235563 0.18194033 0.14340621
0.03528914 -0.08632217 0.14819960
-0.10702896 0.13118130 0.14259917
-0.02670031 0.36236325 0.11586936
0.10276623 -0.09327124 0.13455147
0.05218599 -0.22876583 0.15263109
0.09371745 -0.16051073 0.14781326
0.17079537 0.27721134 0.14128996
-0.02924486 0.32874271 0.14436063
0.19690731 0.09441992 0.14706244
-0.05627699 0.25319648 0.14803669
0.06608342 -0.28931141 0.14061663
-0.15242948 -0.14720879 0.15036571
0.11016423 -0.30211490 0.12287933
-0.10324012 0.03062781 0.13881648
-0.02038017 0.16070762 0.03729855
0.15579802 0.33304965 -0.11529174
-0.12386115 0.30314916 0.14345121
-0.13573599 0.23487477 0.14094274
0.03896149 -0.32194775 0.14236519
-0.05137417 0.24721459 0.15393594
-0.08727756 -0.33746791 0.14429842
0.08238239 0.27790418 0.14476894
-0.06761272 0.06366178 0.14575255
-0.04173265 -0.06895027 0.13163333
0.09161647 -0.43111271 0.12668043
-0.07402280 -0.32174408 -0.02986317
-0.14842400 0.15853883 0.14323394
-0.05828869 -0.23984903 0.03901336
-0.08775171 -0.39437801 0.12854546
-0.10871334 0.14208280 0.13681741
-0.09232689 0.09766920 0.13820915
0.01981324 -0.21586502 0.14043431
0.02768374 0.09269012 0.14264265
0.02979673 0.12758471 0.13148442
0.15742359 0.34759387 0.11969116
0.10640925 0.04795033 0.14045197
-0.00837045 -0.20751360 0.13172279
0.13080236 -0.29523379 0.14012721
0.03835101 -0.20472756 0.13107944
0.04897463 0.15215534 0.12393428
-0.13242720 -0.31790414 -0.05385096
0.14862850 0.15815075 0.14289710
-0.02805117 -0.04513215 0.13280971
0.06883452 0.30909875 0.13526699
0.06856523 0.12986249 0.13178435
-0.04412682 -0.39248183 0.12111676
0.00986012 0.16204512 0.14336300
-0.04889918 0.33080837 0.14316338
-0.07508986 -0.23679784 0.14874615
0.07590023 -0.01006863 0.14957912
0.15061057 -0.23402587 0.10718301
-0.18659027 0.18962911 0.13762896
-0.16078210 -0.08971913 0.14696896
-0.09328341 0.03215615 0.15579024
0.01919891 -0.32046771 -0.07929377
0.07259573 0.27416849 0.14902633
0.04687472 -0.31649125 0.13580129
-0.04322594 -0.39811337 0.11917423
-0.05580927 0.35509455 0.15130033
0.00296768 -0.32046539 0.13759834
-0.03577583 0.01539687 0.15453045
-0.05885226 0.06901017 0.14775252
0.20182389 -0.09939331 0.14074941
0.01910799 0.30418420 0.11641352
0.04013060 0.27090806 -0.01236099
-0.15683205 0.23813519 0.13870519
-0.11855157 0.31574011 -0.13020234
0.17921945 -0.09581479 0.12045084
-0.06459753 0.34149718 0.15234846
-0.03151908 0.17055655 0.13451920
-0.01401368 -0.06173668 0.14497457
-0.05920297 -0.03545355 0.14227226
0.13129018 -0.30771637 -0.07734698
-0.08891033 0.34209421 0.13506387
0.16645025 -0.22323591 0.14789116
-0.10618652 -0.11994572 0.14344333
-0.01326900 -0.10192774 0.04933051
0.18203385 -0.05987509 0.14810020
-0.08842611 -0.31702226 0.01005712
-0.08378322 -0.18731484 0.11777283
-0.08789570 -0.07087356 0.14960811
-0.06654189 -0.22454432 0.14748450
0.17498611 -0.16243985 0.12617154
0.11019228 0.29491976 -0.02915441
-0.01764326 -0.28797179 0.14436981
0.12455951 -0.34178045 0.13265292
-0.02503920 0.12724313 0.14410812
0.13089797 -0.23380701 0.13127103
-0.21920854 0.22167060 0.14297719
-0.21880020 0.24620071 0.13446447
0.17493521 0.37762675 0.11996444
0.20149711 -0.05893927 0.14092065
-0.11635894 -0.29524496 0.12892726
0.12549600 -0.04266751 0.12459937
0.11440030 0.20798136 0.13136527
-0.16879696 -0.35692188 0.12665024
-0.01874423 -0.27533615 0.08823885
0.02847507 -0.22368164 0.15028584
-0.07356589 -0.18722141 0.12546669
-0.09327324 0.30092329 0.13867293
0.00139632 0.08267021 0.14368449
-0.22004883 -0.09522410 0.14029272
0.10375579 0.20434505 0.13952613
0.10169631 -0.30613345 -0.05382676
-0.10944666 -0.09191879 0.14650694
0.07862253 -0.01634386 0.14766900
0.15935360 -0.18420771 0.14132868
0.04482337 0.02449339 0.16169167
-0.00864821 0.28515995 0.11617514
-0.11411366 0.23845774 0.12638277
0.19039221 0.42398769 0.13550043
0.10451351 -0.24384892 0.14319067
0.02681827 0.18220393 0.14678355
0.15780379 -0.37172481 0.14777772
-0.12622964 0.05759507 0.11831496
-0.03639233 -0.25487348 0.13637236
-0.07453069 -0.03237251 0.14417233
0.13320103 -0.00720081 0.14797771
-0.04934854 0.15539409 0.14563093
0.16089578 0.20295605 0.14723100
0.11111344 0.01519361 0.15218949
-0.13067602 -0.33007586 0.10362517
0.08313504 -0.36657822 0.13183835
-0.07055926 0.21298590 0.05688598
0.03493617 0.03443706 0.12003383
-0.21769451 0.03641879 0.14147961
-0.03458341 -0.00275233 0.14337476
-0.20337948 0.26062912 0.13816881
-0.08474155 0.07093732 0.15387873
-0.07276517 0.26054543 0.01161017
-0.00648931 -0.38375199 0.13070419
-0.12107861 -0.28042927 0.15467055
0.13333316 0.36840507 0.14323141
0.09360871 -0.06883687 0.13401870
-0.12721425 -0.17833246 0.14530510
-0.16082332 0.01533273 0.14557824
-0.06575340 0.29646093 0.09838851
-0.11026592 0.13116968 0.14785638
-0.00088361 -0.17285560 0.13446094
0.12034374 -0.19478221 0.14430280
-0.13729604 -0.35147876 0.13211834
-0.11426353 -0.33649582 0.12006371
0.13047096 -0.16612096 0.14750831
-0.14329267 -0.00683087 0.13596092
0.13816796 -0.32980174 0.14818893
-0.01455424 0.11424260 0.14983076
0.16970864 -0.26035947 0.12753096
0.05480376 -0.23120786 0.04161766
0.03928633 -0.06456988 0.14915824
-0.01043618 -0.28867599 0.13980867
-0.05200879 0.07305962 0.05163603
-0.05513892 0.19567165 0.14619908
0.08047077 -0.31918937 0.13870481
-0.09269899 0.14344075 0.14544997
0.03272690 -0.26915592 0.01537051
-0.19572857 0.29470155 0.12991372
-0.18824717 0.30747408 0.12829332
-0.08165480 -0.11989018 0.15074073
-0.07100230 -0.26888037 0.14572555
0.16469885 0.13330267 0.15524709
-0.13061093 0.34429422 0.13601813
-0.01638008 0.22128646 0.15132280
0.16106321 -0.25805253 0.14124817
-0.14675802 0.00712820 0.14323464
0.18108188 0.29958510 0.14836606
-0.11382407 -0.11156610 0.14256033
-0.09521811 -0.39670098 0.12451779
-0.18311833 -0.22561178 0.12528878
0.02859684 0.05679773 0.14737496
-0.10722885 -0.17646262 0.14666025
-0.17783408 0.01507879 0.14327303
0.09567740 0.30089858 0.15827419
0.21416733 0.26573098 0.12251949
0.20580336 -0.27260509 0.15126385
0.03627398 0.07955404 0.04897746
0.02315719 0.30056658 -0.10067516
-0.03508100 -0.12118295 0.14726916
-0.09869052 -0.29249388 0.05107987
0.15045226 -0.11579265 0.15041740
-0.08517136 0.30461556 0.08189359
-0.03355318 0.42348766 0.14263073
-0.10415183 -0.26820749 0.08488441
0.11432494 0.25456309 0.14256863
0.07919880 -0.28003845 0.14044341
-0.06411643 -0.18359020 0.12930956
-0.13512613 -0.17780510 0.14659950
0.13692893 0.08251718 0.15049507
-0.08704334 -0.25156802 0.14244702
-0.04061995 0.04701947 0.14887115
-0.13159303 -0.28901997 0.10563190
-0.13803978 0.04061522 0.14506125
0.19573084 0.21580136 0.13653770
0.01839425 -0.12018903 0.08000512
-0.15009034 -0.28323883 0.13486366
0.15647666 0.09584929 0.14512385
-0.17910811 0.16988352 0.12658463
-0.15097526 -0.20930053 0.14580691
0.11313222 0.29493463 0.04378265
-0.08803005 0.31103802 -0.07911642
0.07303205 -0.08955743 0.14092728
0.17756134 -0.07395367 0.13991529
0.08937808 -0.05344974 0.14885616
0.18637641 -0.02167773 0.12456825
0.14868310 -0.18819422 0.12211584
0.11530913 0.08345362 0.12435155
-0.08860897 -0.26424819 0.14283025
-0.08509026 -0.05705055 0.14316840
0.05077925 0.04395858 0.14124948
-0.13118732 0.15995130 0.14893886
-0.12280490 -0.11953776 0.14595464
0.11476525 0.07311148 0.14934757
-0.21983851 -0.25706780 0.12691849
0.18321367 0.34006554 0.10956503
-0.00802077 0.38715464 0.14608413
0.13132103 0.35523951 0.13574107
-0.04444081 -0.30201256 -0.12758680
0.05807748 0.07817031 0.13658559
-0.16159341 -0.13687775 0.13387184
0.10291846 0.28476861 0.12333683
0.08160799 -0.07736573 0.14530326
0.00366656 -0.10896749 0.12063596
-0.13531251 0.14554110 0.13441253
0.10848876 -0.33105791 0.14397793
-0.13354331 0.31491384 0.12679292
0.01454177 -0.22860424 0.04068945
0.07784918 -0.33726433 0.14497933
-0.01214982 -0.31619138 -0.02970678
-0.01559785 0.13411254 0.13849477
-0.01313698 -0.35036206 0.14120942
0.02240799 -0.19744664 0.13416803
0.15111333 0.34354413 0.13925834
-0.06027364 0.34310970 0.14008430
0.11916478 -0.29685223 0.13579105
0.03926586 0.20460132 0.13419414
-0.12954958 -0.37765050 0.13465959
0.07744730 0.25122678 0.13769394
-0.14469944 0.25065476 0.14333227
0.13419974 -0.15844621 0.13927013
0.05859920 0.23368621 0.14472775
0.02230588 0.03355068 0.14808005
-0.13475713 -0.13594884 0.15207875
-0.12213415 -0.28070670 0.08950475
-0.20749056 0.09775341 0.12382868
-0.00878214 0.14037880 0.14649966
0.13853601 0.12082352 0.13339172
-0.08077331 0.38754845 0.13714139
-0.14809349 -0.06916442 0.14437160
0.11568247 0.27713355 0.13756497
0.16814083 0.28327107 0.14637153
-0.15309086 0.32314420 0.14405189
0.13661547 -0.28614083 0.12789069
-0.12625645 -0.15582532 0.14614663
-0.13807115 -0.06783815 0.12341529
0.11991844 0.28374341 0.11482625
-0.05156985 0.04832276 0.13962524
0.00740994 0.09118737 0.14221054
-0.01054138 0.20296249 0.06336287
0.09576701 -0.28736067 0.14936332
-0.11220551 -0.32659188 0.10342782
0.07067258 -0.38878712 0.14318700
-0.02449788 -0.21547113 0.11366979
0.16899756 0.35430530 0.10767147
-0.03353877 -0.06032717 0.14218548
0.09594493 -0.27674085 0.13451418
-0.08479099 0.42046916 0.13651919
0.08890281 0.35458979 0.14906809
0.15877190 -0.33576864 0.12929893
0.00226885 0.32750842 0.14897773
0.13724695 0.32279268 -0.06297129
-0.09093279 0.30686423 0.06762921
-0.09108211 0.11422808 0.13089947
-0.10183018 -0.08916838 0.14197972
0.12903441 0.29705384 0.05873386
0.16641596 0.40176570 0.14564297
0.06954398 -0.30295616 0.04318307
-0.14775659 0.36317867 0.12458490
-0.15520868 -0.30259088 -0.13220848
-0.13133164 0.41669241 0.14006233
0.09928736 -0.05049112 0.14622417
0.03226805 0.41093996 0.14939581
0.06060987 -0.15796638 0.14620395
0.15673262 -0.00046353 0.13126653
0.10310563 -0.29801014 -0.12625572
0.13626415 -0.30652928 -0.12178931
-0.00765540 -0.35889238 0.13842584
0.10613421 -0.27245298 0.14553943
-0.05607348 -0.01793972 0.13279797
-0.16111322 0.19573314 0.13791123
0.06125567 0.05146795 0.15017243
-0.10969970 -0.32611126 0.11058954
-0.10435405 -0.32164490 0.15566440
0.13978681 0.02492387 0.14629199
0.08469839 -0.27259153 0.08658011
0.07609417 0.37569913 0.12878951
0.04741868 0.13032368 0.14257535
0.15104972 0.34173995 0.13035855
-0.02567973 0.40176615 0.14123233
-0.04133727 0.20302548 0.13398616
-0.06596226 -0.38692153 0.13864225
0.05753520 -0.17300236 0.14652202
0.01382155 0.08531541 0.14155364
0.13166064 0.33390260 0.12208544
-0.11726148 -0.20519623 0.14469919
-0.21414706 -0.22691202 0.10917953
-0.03480707 -0.05833089 0.13993779
-0.20121288 0.09889748 0.15004806
0.01574222 -0.09868054 0.07585885
0.06251984 0.03215058 0.14839531
-0.12610845 -0.02755135 0.14654937
0.19546697 0.28884694 0.13289800
-0.14060685 -0.15715536 0.14680633
0.09305991 0.31747892 -0.09891470
-0.05065067 -0.34903657 0.12012914
0.10030218 0.35256857 0.14263207
0.03202211 -0.00741047 0.13927868
0.12214890 0.07389342 0.14916228
0.00921036 -0.06976205 0.13809660
-0.07287425 -0.06927103 0.13854782
-0.06008364 0.08285920 0.14381814
0.13626689 -0.12670887 0.12309548
-0.05558903 -0.12737674 0.13464086
-0.11928817 -0.29329169 0.08828709
-0.03687227 0.09528718 0.14059210
-0.06962574 0.07197972 0.15666296
0.15134144 0.32182825 0.11824326
-0.16339988 -0.19774294 0.14396763
0.12580726 0.26126105 0.14911567
-0.18922694 0.02993748 0.11482322
0.01185234 0.35306853 0.13389418
0.08017407 -0.26206085 0.13634750
0.13086835 -0.18998641 0.15153427
0.02354693 0.02529647 0.13997178
0.02824269 -0.33010170 0.14695872
-0.12502585 -0.31824756 0.00000109
0.14369810 0.39012700 0.15177333
-0.16842143 -0.18707116 0.15183471
0.19783360 -0.30739689 0.13302726
-0.01524629 0.37877333 0.14175484
-0.08077869 0.08351252 0.15118451
-0.14404008 0.12139016 0.14921001
-0.08990399 -0.32128751 -0.04574484
-0.04611973 0.26758152 0.14182599
0.09743465 0.31670871 0.05198502
0.06689773 -0.18575282 0.13469002
0.09591097 -0.03030498 0.15003350
-0.07199100 0.23179510 0.14675394
-0.10600179 0.10048895 0.14481388
-0.05546235 -0.23436111 0.14351772
-0.11615267 0.28114235 0.05550813
-0.14837894 0.29346091 0.11032669
-0.10935102 0.27508438 0.09111597
-0.07613057 0.11245386 0.12803346
-0.07755128 -0.25104263 0.14775097
0.22581862 0.04900557 0.14626507
0.03325548 0.21048695 0.12594266
0.01113172 -0.25681967 0.13929309
-0.10426383 -0.32506615 -0.13371971
0.13587584 -0.14875764 0.13418256
-0.06810326 0.36361811 0.12601575
-0.12922065 0.31364810 0.14285383
-0.07349041 -0.38325116 0.14776018
0.13745648 0.07233906 0.14371622
0.13231842 0.17261159 0.14205390
-0.13125081 -0.27489519 0.14567764
0.04594757 0.05767934 0.14455333
0.16813268 0.22397277 0.13827437
0.09320813 -0.10345849 0.12934229
0.10345663 -0.41480869 0.13403778
-0.12325519 0.14709955 0.14115354
-0.13765338 -0.32075921 0.15318973
-0.19056267 0.01416290 0.14378428
0.16534810 0.09714322 0.14259650
-0.00959049 -0.04098682 0.14131628
-0.07935569 0.02347470 0.13617958
-0.09488082 0.27011770 0.14411038
-0.11058025 -0.32046875 -0.03286770
0.07725966 -0.13398884 0.11451954
0.03334771 -0.27953222 0.13738613
-0.11830622 0.18628913 0.14334083
-0.00443189 -0.29520497 0.12108579
-0.03128469 0.09277195 0.11455074
-0.08727373 0.14090589 0.14332074
0.13121681 0.07426938 0.13552348
0.11286877 -0.31544989 0.14129506
0.13984564 -0.06650785 0.14039676
0.07483532 -0.19005606 0.13281766
0.02757071 -0.03152511 0.13887921
0.15635028 0.33290622 0.14186630
0.17315017 -0.12580910 0.13421872
0.14920691 -0.13495816 0.14752725
-0.12811853 -0.15572247 0.10762352
-0.04967755 -0.10824504 0.13039872
-0.06804787 0.39939708 0.13572451
-0.10436060 0.08437442 0.13968267
0.02081335 0.25915599 0.10177149
0.02963769 -0.14906991 0.12839651
0.04614446 0.27378216 0.15432918
0.09263323 -0.16816449 0.13294780
0.13733630 0.27852041 0.13978869
-0.08915942 0.35969475 0.13337898
0.19225097 0.06457665 0.14394106
0.08574753 0.09730344 0.13828515
-0.05188364 0.25952363 0.13257913
0.06007907 0.07779524 0.14739710
-0.04718050 -0.16738179 0.14941332
0.05037948 -0.38980693 0.12395903
0.00454726 0.41982946 0.12853947
0.03487752 0.05689189 0.02381837
-0.08223981 0.18676439 0.14476457
0.07091334 -0.17947459 0.14345679
0.16187510 -0.32437629 -0.13143778
0.11140652 -0.32909161 0.12326443
-0.14580701 -0.37809318 0.13195191
0.06452710 0.09768973 0.14308627
-0.07691677 0.30960706 0.14469589
-0.00698305 -0.18051900 0.14554957
0.06607473 0.00192738 0.14527985
-0.06035412 -0.09718493 0.14838724
0.02666431 0.39474672 0.15661116
0.04649777 -0.16181232 0.13143477
-0.16343284 0.28759265 0.12022728
-0.12536609 -0.34710455 0.13208345
0.07304590 -0.22396454 0.14855967
0.13354196 0.03643653 0.14283507
0.10897169 -0.29489350 -0.10637005
-0.08916703 0.28522000 0.14297560
0.10134201 0.19527383 0.14781821
-0.16509101 0.28153992 0.10633283
-0.18039227 -0.13098192 0.14102779
-0.00357968 -0.30219007 -0.03345879
-0.20771942 0.22302175 0.14983861
-0.12610099 -0.36229473 0.10761268
0.11827515 0.27571920 0.13067697
-0.03865294 -0.29346848 0.12311995
0.13931309 0.20564465 0.13839614
0.17342654 -0.12704125 0.11775248
-0.21227899 0.19401002 0.11513206
0.04402149 0.25139445 0.09190188
0.01195040 -0.32603917 0.11537687
-0.10634306 0.27813268 -0.05383435
-0.13376667 -0.08716778 0.13739082
-0.01088113 -0.07185921 0.14576437
0.06967224 -0.39523631 0.13127123
0.03216204 -0.18444517 0.01566126
0.20111370 0.14004984 0.12904570
-0.11874408 -0.06760073 0.14406963
0.12442283 0.37276483 0.15331931
0.04456531 0.33001265 0.14159936
-0.02825638 -0.25177211 0.11297071
-0.08687872 -0.31019300 0.14218169
0.06712599 0.36017945 0.14267512
0.12599915 0.31804973 0.07523315
0.05726039 0.26873505 0.12626916
-0.11469962 -0.13423313 0.12206405
-0.02120891 0.03580279 0.14607605
-0.05755646 -0.13618867 0.15008014
-0.04374505 -0.26848021 0.14399216
0.16737671 -0.31739467 0.13251175
0.19222769 -0.00901158 0.13545565
-0.11352797 0.29434460 0.10557677
0.06366190 -0.12321766 0.14148994
-0.05204860 -0.34920734 0.14533465
0.07033674 0.35249269 0.14104611
0.16823870 0.22856824 0.14339472
-0.05716147 0.22051224 0.14644244
0.07284825 0.01144757 0.14734536
0.14659095 -0.03682068 0.13038912
0.00945392 -0.03999307 0.12107001
-0.16301832 0.07330710 0.12818103
0.01725971 0.38025543 0.14567399
-0.01307807 0.12921324 0.13990900
-0.02629055 0.40326744 0.11827498
0.16151437 0.18961233 0.14439450
-0.00670540 -0.29737529 0.14333679
-0.11269942 0.09001158 0.15239286
0.10600197 -0.42163968 0.14324047
-0.05205641 -0.26657110 0.13583963
0.01945234 0.27237481 0.14818829
-0.07519704 -0.35951385 0.13215183
0.11047977 -0.38802290 0.14649853
-0.08823836 -0.23770052 0.15109429
0.09660774 0.22820407 0.14712520
0.13305165 0.06207666 0.11530500
0.09192683 -0.20418502 0.14244148
-0.13584211 -0.18905710 0.14492004
0.12632273 0.30430636 0.10679628
0.09067951 0.29802155 -0.06701404
-0.18808952 0.14341322 0.14408410
0.16630806 0.04258108 0.13320480
0.02877490 0.30501834 0.11576860
-0.17547666 -0.29278606 0.14256954
-0.13517798 -0.32641035 0.03997509
-0.13367324 -0.35055041 0.14182007
0.08878254 -0.06495386 0.14565462
0.15578210 0.15806831 0.11484393
0.19078790 0.11363120 0.12986097
0.07529387 -0.06206828 0.14573692
-0.12839401 -0.04322286 0.13938287
0.07835053 0.30436149 0.15473135
0.01251145 -0.31146416 0.14038765
0.14017347 -0.31403345 0.09019640
0.02556551 0.31347635 0.15384725
0.02807386 -0.02863962 0.14709908
-0.06805035 0.26440740 0.13191754
-0.18809375 0.17683627 0.14482613
-0.03168365 -0.03520723 0.11518172
-0.16156155 -0.14343598 0.15460221
-0.02058475 -0.24617767 0.14396986
-0.06137154 -0.31168070 0.01149480
0.17215365 -0.25900552 0.14160271
-0.03819174 -0.16287211 0.13575605
-0.01751217 -0.14163864 0.14230376
0.13711223 0.34253150 0.13455380
-0.19155411 0.42503592 0.13442007
-0.17459117 -0.10848764 0.13510570
-0.04033121 0.30785304 0.13944195
-0.04384551 0.33177775 0.15187353
-0.04468349 -0.40583995 0.14424893
0.06806659 0.14337355 0.14737147
-0.10488608 0.35365775 0.14437991
0.11982209 -0.23688546 0.13771623
-0.22204554 -0.20806774 0.14328276
0.17168799 0.26457819 0.12953091
0.18380541 -0.14658281 0.14565706
-0.12913513 -0.27551258 0.11878014
-0.16507111 0.22378534 0.14718947
0.19900084 0.29236186 0.13339865
0.14020477 0.20279966 0.14536710
0.09201854 0.20076390 0.13941592
-0.05200987 -0.22643983 0.14888623
0.04636458 -0.22303998 0.14090964
0.11843820 0.05953319 0.12877050
0.13098125 0.30992988 0.13667238
0.22728580 -0.00069382 0.13625990
-0.16475686 -0.27080107 0.14523542
-0.06867924 -0.03898413 0.14609313
0.05430622 -0.18201925 0.14413412
0.05007232 -0.00888477 0.14383706
-0.11726283 0.17770082 0.14484422
-0.10962157 -0.38457647 0.13303329
-0.14789625 0.36820036 0.14787276
0.14428468 -0.16183996 0.13751608
-0.11762118 0.22916698 0.14409882
-0.04833550 -0.18363309 0.14118426
-0.08575665 0.30325457 0.08326912
0.20435508 0.14142594 0.13103855
-0.03994849 -0.39905477 0.14634536
0.04843244 0.05688970 0.14132088
0.07745380 0.08641525 0.14751358
0.05721454 -0.17567059 0.13460511
0.07342966 0.33094314 0.14402601
0.14516863 -0.35827118 0.14308088
-0.17100967 0.27272645 0.15649499
-0.17131791 -0.05068991 0.11898799
0.01477410 0.17262486 0.08236670
-0.09970193 0.07323764 0.14419839
-0.00657373 -0.32308275 0.14960614
0.18690595 0.06349145 0.13076144
0.02387920 0.34686691 0.13113602
0.02918636 -0.22376525 -0.00064247
0.01281680 0.33056468 0.14377135
0.12228364 -0.15212804 0.13906445
0.04270528 0.28843173 0.08416811
-0.00009275 0.20989713 0.01630446
-0.20373338 -0.36805093 0.15096787
-0.11193477 0.29422659 0.15064271
-0.05115424 -0.03996888 0.13881302
-0.11873803 0.25637054 0.14402014
0.14057371 0.30955207 -0.11139054
0.18317866 0.08515006 0.11840282
-0.04390500 0.14173281 0.14325649
-0.05797274 0.34196407 0.13446873
-0.03034095 -0.14621088 0.14417700
-0.09143305 -0.04914559 0.14599222
0.19184616 -0.22320935 0.14152007
0.08456643 -0.38102040 0.11509214
-0.09010069 -0.33259049 0.14367706
0.03831229 -0.39126673 0.11358555
0.13685596 -0.30117899 0.03565777
-0.16297503 0.32186460 -0.11851374
-0.07404357 0.05470066 0.12875056
0.17800322 0.23005462 0.12691280
-0.17358397 0.03647661 0.13850740
-0.12933305 -0.41041276 0.10048489
-0.18959171 -0.06859481 0.15155372
0.13070145 -0.31174409 0.11332574
0.04580358 -0.06996788 0.14461410
-0.12141059 -0.13355412 0.14187583
-0.01228753 -0.38620377 0.13506439
0.08337843 -0.09286435 0.14244235
-0.20974089 -0.27550110 0.12778549
-0.06298298 0.11530241 0.11508132
-0.16090094 0.27535623 0.13866477
-0.09940039 0.13215628 0.14886455
-0.07265864 0.30284417 0.14070076
-0.11797266 0.18606199 0.13809606
0.00390329 -0.40061122 0.14341624
0.02922128 -0.16135930 0.10501982
0.21352893 -0.22347629 0.12148653
0.05380270 0.31064016 0.12349674
0.04102366 0.29266661 0.12209404
-0.14781009 0.28404588 0.14089957
0.07913084 -0.00001599 0.14324042
0.07598935 0.12103000 0.14183742
0.09057897 -0.15283519 0.14746732
-0.06118146 -0.28210437 -0.03170081
-0.01017061 -0.18666911 0.14170946
-0.04382110 -0.29754853 0.13463923
-0.13159537 -0.23698992 0.12881355
-0.11889561 0.18448615 0.12103009
-0.17920636 -0.18966885 0.12657763
-0.01096430 0.16829558 0.15105987
0.13398317 -0.07693852 0.14755476
-0.12662712 0.20574784 0.14414102
0.11770622 0.29994538 -0.06041703
-0.17717168 0.13040765 0.12079414
0.04699884 -0.31688583 0.10786949
0.21696341 0.11939517 0.14625338
-0.08802066 0.09791225 0.13907850
0.01168339 0.16553944 0.12219521
0.07177053 -0.31527159 0.09218419
-0.11835465 0.27870372 0.05860227
-0.09353309 0.33615729 0.14854689
0.01025448 -0.26226947 0.14807811
-0.00462161 0.05792135 0.15226424
0.12649027 0.20915814 0.12787595
0.01299527 0.18940708 0.10536150
0.00558969 0.15803307 0.06239476
0.02848839 0.27265525 0.12932396
0.02622683 -0.22632156 0.13237183
0.16533592 0.31910634 0.14557955
-0.05960393 0.28735852 -0.02043457
0.16873875 0.27837336 0.14557436
0.00503892 0.05006690 0.14769769
-0.21789813 -0.04977605 0.14281669
-0.01667646 0.27997643 0.14789277
-0.22341329 -0.28016710 0.14177495
0.02996472 -0.00327393 0.15390706
0.09108923 0.42456892 0.12185962
0.11828400 0.30068237 0.03623172
0.00881976 0.29913300 0.14135040
-0.08397309 -0.05180956 0.12910673
0.17488004 0.36748451 0.12752548
-0.10521337 0.39054385 0.14717855
0.07775863 -0.30419844 -0.10468905
0.06556357 0.27242580 0.14305504
0.10539088 -0.23211765 0.14295337
-0.00654626 -0.19502990 0.14116746
-0.11891387 0.01598027 0.14117014
0.06475908 -0.09497330 0.14463133
-0.09851958 0.19605300 0.14344092
0.00449472 -0.10738340 0.14666769
0.07108134 -0.30052164 0.14384317
-0.09290788 0.35995671 0.14737418
-0.14351910 -0.19981003 0.13977063
-0.14009020 -0.05597516 0.14841515
-0.08109026 0.00609184 0.14545968
0.13584390 -0.31768411 0.15093090
-0.11479942 0.18622434 0.14852497
-0.20428959 0.28819585 0.14559434
-0.15879241 0.26766992 0.11277031
-0.17890377 0.28815797 0.13940065
0.02995107 -0.37525958 0.14052878
0.12206104 -0.16077992 0.13725176
-0.00101341 0.13228884 0.14757265
0.16167189 0.16922583 0.13497716
-0.16221872 0.07550099 0.14373562
-0.07971746 0.25703010 0.13864347
-0.02003816 0.41072094 0.14145952
-0.16922170 0.33666769 0.13045105
0.16324320 0.08568169 0.12509345
0.13130495 -0.34785721 0.10742325
-0.03062373 0.14841068 0.14576764
0.05400995 -0.15613720 0.14642864
0.07611980 -0.40683970 0.14450346
0.09847836 0.35192311 0.14547580
-0.02796551 -0.10752900 0.14545932
0.04667272 0.32540014 0.10802587
0.05521041 0.09533761 0.14471804
-0.02025217 0.11613017 0.14021540
0.18814163 0.10317266 0.13186529
0.11073980 -0.27702472 -0.04333279
-0.01278275 -0.03137989 0.13071464
-0.12487260 0.24354073 0.12211371
-0.07998984 -0.37541649 0.14958155
0.13767534 -0.26814222 0.13168165
-0.05270481 0.11630367 0.07270723
0.19273610 -0.03750651 0.14779976
-0.11029321 -0.30791038 0.10733262
0.02470645 0.12203331 0.13956153
-0.10591068 -0.16123128 0.14114663
-0.00813432 0.11199501 0.13440710
-0.12941597 0.32384062 -0.10273278
0.07852662 0.35746458 0.14384146
0.01653611 -0.20879620 0.15156016
-0.15168561 0.29688340 0.12700182
0.18515733 0.22520335 0.14737865
-0.04295271 0.18318489 0.14961465
-0.13516466 0.31785601 0.03221298
0.02975284 0.25691652 0.14429344
0.11221959 -0.27101028 0.14811337
-0.15769048 0.25431532 0.14962514
-0.00471919 -0.30257490 0.13514647
0.13071221 0.30711371 -0.11083779
0.01110746 0.35834402 0.12098497
-0.18805623 -0.17308685 0.12750019
0.11813447 0.00357067 0.14072174
0.10528381 0.38874948 0.14957124
0.11986704 0.30635503 0.10348645
-0.13786951 0.32154608 0.10317542
0.00488660 -0.29646489 0.03238440
0.14757988 -0.14994578 0.13370600
-0.13823065 0.04493894 0.11158974
0.13111776 -0.32349920 0.04518120
-0.06064753 0.07103175 0.14642927
0.16978316 -0.29402426 0.14610480
-0.10611696 -0.25939283 0.15139048
0.16258729 -0.06056190 0.15377900
0.20200276 0.02471653 0.14554015
0.09665476 0.12681203 0.15099135
-0.16605476 0.02163808 0.11105537
-0.00590405 0.14434269 0.14951876
0.08784541 -0.09059244 0.13704851
0.08164482 -0.06111306 0.13213547
-0.12939426 0.01579034 0.14747106
-0.07314636 -0.08082817 0.14918920
0.13207139 -0.35840890 0.14173174
0.01663615 0.38876617 0.12352057
0.08676106 0.37424615 0.13115765
0.05290940 0.24628901 -0.04170505
-0.07412533 -0.30423227 0.07395267
0.09182343 0.27372754 0.12897496
0.16790991 0.19277582 0.14297354
-0.12546550 -0.31294924 0.14189151
-0.15933332 0.21131141 0.12102122
0.02335049 0.10332115 0.13678828
-0.16755646 -0.32745180 -0.09816006
0.11828548 -0.05206532 0.14327185
0.12362466 -0.15085658 0.12458413
-0.17020047 -0.38506627 0.14256090
0.05483601 0.41283143 0.13023524
0.13814098 0.23955874 0.09868118
-0.15241393 0.31168789 0.14594251
0.12221777 0.07719874 0.13765311
0.00573771 -0.12617403 0.14732444
-0.03307270 -0.08173242 0.14513588
-0.03192511 0.16791359 0.12074640
0.02890556 0.15761012 0.01686174
0.12981431 0.31465003 0.05596150
0.17647146 0.00512738 0.13277379
0.05145343 0.30474150 0.14243817
-0.11714488 -0.31985325 0.06330390
0.10440940 0.15870881 0.13275221
0.14785573 -0.22674952 0.13252068
-0.00493753 -0.42031196 0.13434802
0.02139753 0.36066836 0.13554275
0.03643093 0.10473558 0.13168880
-0.00172627 -0.07585116 0.14486662
0.00808898 0.33654422 0.14112449
0.16670159 0.04271004 0.13761440
-0.15913062 0.33780611 0.14753252
-0.09732652 0.31452373 -0.06153441
-0.04002393 -0.21004078 0.14396937
-0.18283372 0.07659404 0.12507260
-0.01430513 0.29701233 0.13103136
-0.02684340 0.33089751 -0.13373259
0.05149469 0.16335398 0.03346806
0.10803377 -0.21556121 0.14145234
-0.13119969 -0.19035099 0.14199543
0.05350006 0.06471884 0.14547257
0.02446841 -0.27659273 0.13678719
0.02894272 -0.13207832 0.13822320
-0.12860729 0.28823134 0.14931479
0.03092027 -0.00034540 0.14538866
0.18183585 0.25530672 0.12717305
0.06694178 0.28473571 0.14629173
-0.18191351 -0.21236518 0.12052304
-0.14487718 0.21252909 0.14786586
0.12026218 -0.37326077 0.11903460
0.12286495 0.27574599 0.11096142
-0.11628687 -0.10091244 0.14957117
-0.01823385 -0.15446916 0.05019038
0.11371073 0.20961811 0.14289019
-0.21340385 0.26795471 0.13541721
0.08220289 -0.18872829 0.13957952
-0.22527352 0.10566521 0.14255732
-0.16304059 0.38806853 0.14994249
0.07614359 0.16055280 0.12997156
0.00555185 0.01576177 0.13611507
-0.12842576 -0.04671160 0.14922050
0.01087472 -0.09994721 0.05267184
0.06402438 -0.04418186 0.14568107
0.06030691 0.23739162 0.13850242
0.03982591 -0.23653388 0.14782152
-0.19395156 0.02149708 0.12488273
0.08809695 -0.12461060 0.14238054
0.12661932 0.18215053 0.14661467
0.01275615 -0.19420901 0.14204800
0.01665033 -0.33340567 0.14373983
-0.00002482 0.30831859 0.10483302
0.06782752 0.30652583 -0.12570855
-0.16931900 -0.19499239 0.14717086
-0.14637402 0.11589287 0.11734521
0.09993814 -0.40204495 0.11400228
0.08318037 -0.23443265 0.13893510
-0.15520838 -0.04717341 0.13414973
0.06815521 -0.17073821 0.15094292
0.14993590 -0.31794763 0.14791195
-0.05892806 -0.05959414 0.14140233
-0.03872661 -0.20691913 0.15033345
-0.01537637 0.13124993 0.14220947
-0.02672770 0.02713582 0.14358070
0.01124419 -0.02238908 0.14804883
-0.15828604 -0.29605907 0.10560742
0.18079573 0.15829408 0.14102496
0.10428648 -0.18909696 0.12946394
0.05197907 -0.28268486 0.10279296
0.08540074 -0.00920312 0.14340478
-0.10141215 0.01831370 0.13982201
-0.18306777 -0.22102433 0.16039759
-0.11754574 -0.22220787 0.13267231
0.03292296 0.34271377 0.14630736
0.06956653 0.01385534 0.14004259
-0.16776259 -0.12974471 0.14136258
-0.13410212 -0.05577993 0.14073633
-0.20921364 0.39321887 0.12685850
0.10947055 0.07217220 0.13484630
-0.12898691 -0.30922389 0.14732006
-0.03683572 0.35460687 0.13894217
0.16342752 -0.30210361 0.14308791
-0.09455844 -0.07531332 0.14979047
0.01013421 0.23831105 0.14045256
-0.08337710 0.03246076 0.14493556
-0.13318039 -0.33438480 0.11555173
-0.03206538 -0.11177570 0.14869031
0.18135896 0.15257892 0.11577883
0.07574940 -0.13733394 0.12932190
-0.05278067 -0.20046338 0.13503641
-0.10644062 0.28872097 -0.05121774
-0.03566277 -0.01806278 0.14395294
0.03834336 0.17299671 0.13517599
0.05482574 0.31647670 0.14061128
0.00271424 -0.24768114 0.14872684
0.01683520 0.06810158 0.11783635
-0.19490485 0.09339744 0.13882072
0.13294217 0.16504468 0.14492440
-0.03496384 -0.03380623 0.13502954
-0.17310789 -0.29559398 0.12023373
0.06525372 0.28845403 -0.00108648
0.08161202 0.41886216 0.14128849
0.12777279 -0.15316069 0.13475516
-0.08568180 0.03108966 0.14115696
0.06676943 0.19700696 0.12973532
-0.17337111 0.15322894 0.13746744
0.08029255 -0.22324149 0.14309904
-0.14956072 0.28156346 0.14217502
-0.05734195 -0.18770237 0.14544269
0.05954789 0.30214441 0.13592832
-0.10860260 0.12541117 0.13892692
0.16382670 -0.21765788 0.14275496
-0.11115085 -0.30745175 -0.06104990
0.07543318 -0.07095507 0.14076951
0.17182806 0.25755113 0.12883560
0.00704327 -0.22654273 0.14605173
-0.01133980 -0.22078106 0.05323210
0.14181726 0.15043518 0.14136992
-0.02695332 -0.19894367 0.13738140
-0.07397805 -0.25851721 0.11427870
-0.11153166 0.31123620 0.07913554
0.06339022 -0.36530608 0.09928330
0.12297713 0.34554088 0.10776366
0.10224704 0.18993931 0.11341166
0.00695090 0.00464345 0.13913538
0.10253036 0.06877951 0.13580434
-0.00399230 0.11634073 0.01512051
-0.00971948 -0.00207778 0.13949867
-0.06187388 -0.07459854 0.12193696
-0.05811139 -0.33150533 0.11316697
0.12782669 0.32045925 0.14957468
-0.06543477 0.30616006 0.10613018
0.15892990 0.07583769 0.13032669
0.09221363 0.31016582 -0.01671091
-0.00551971 -0.03794767 0.16163582
0.17222744 0.29736713 0.16217701
-0.11613435 0.14393853 0.15006247
0.10441646 0.05531281 0.13713393
-0.16687730 0.13498804 0.15294233
0.12906156 -0.03947051 0.13867474
0.02601257 0.42937440 0.13605076
-0.07932837 0.04925616 0.14532186
0.15044805 0.30927837 -0.14293481
0.18523589 -0.02150923 0.14261761
0.02476382 0.13166584 0.12652354
-0.04482097 -0.06447688 0.14495873
0.05200448 -0.26075014 0.14657852
0.16286971 0.23695010 0.14671770
-0.07296481 0.30027217 0.15152268
0.11183523 -0.29723063 0.14787579
0.09161218 0.05329413 0.13942221
0.13075228 -0.38866061 0.14147909
0.06885925 -0.20687871 0.12577662
-0.17836101 0.15665559 0.12793151
-0.05043036 0.37668025 0.14251241
0.03147469 -0.35022935 -0.01410893
0.03262050 -0.25413015 0.14429010
0.00756122 -0.41958281 0.13571095
0.10116643 -0.29205155 0.10030165
-0.11498286 -0.31953654 -0.06744409
0.15650548 -0.26784474 0.14298989
0.13656867 0.35853893 -0.13471535
0.09554785 -0.31833893 -0.10647956
-0.15467001 0.21074826 0.12312040
-0.00148620 -0.40925762 0.14131954
0.18924806 -0.00583794 0.14136927
0.17464167 0.16885693 0.15080640
0.02115572 0.23412406 0.11361928
-0.03510776 -0.20059091 0.14630947
-0.10251908 -0.17635417 0.14005791
0.21400177 -0.17462604 0.13324854
0.03817934 0.34844196 0.15447484
-0.01010455 -0.28052038 0.14332922
-0.06800523 -0.40278268 0.15443081
0.12906501 -0.03982445 0.12766331
0.07786643 -0.17340493 0.14257300
-0.04205527 0.08969005 0.14640041
-0.17218462 -0.35066926 0.14984378
0.17846748 -0.35463625 0.11898459
-0.15990382 -0.23940851 0.14360520
-0.01957466 0.21638574 0.01466380
-0.05016242 0.28361487 0.15008643
-0.03639664 -0.21683872 0.07685825
-0.05318908 -0.29822150 0.01840779
0.03149290 0.08697172 0.12121893
-0.19658394 0.07084572 0.13996835
0.12084141 -0.04675429 0.11469915
-0.11537404 0.31064039 0.14759010
-0.03559954 -0.27435085 0.14197737
0.10259524 0.22874632 0.12875840
0.17453572 0.19341129 0.15326619
-0.19729307 -0.12525040 0.14251016
0.10743260 0.15245898 0.11730349
0.06299810 -0.28644875 0.15304892
0.05989368 -0.22097760 0.13118938
-0.04533511 0.11473892 0.13799700
-0.02028137 0.15996280 0.13124496
-0.15673709 -0.27474552 0.14475517
-0.12444217 0.29899579 0.12028451
0.02727923 -0.05399391 0.13816452
-0.05564767 -0.04694233 0.14120640
-0.19906810 -0.03913962 0.12564152
-0.18174902 0.02092188 0.13366202
0.14164308 0.36821929 0.10898018
-0.00020430 -0.16964978 0.13943632
0.14402081 0.28325924 0.13939139
0.10110369 0.26257110 0.15489314
0.04028510 -0.06275865 0.11207725
-0.13640884 0.31603199 -0.02572637
-0.02709861 -0.23649965 0.02874102
-0.12874214 0.22306389 0.13765290
-0.05654818 0.25480452 0.14550012
0.12261987 -0.02770000 0.14802951
0.18996307 -0.27662235 0.12240110
0.15130039 0.16750202 0.13553286
-0.06144664 0.01088122 0.14790398
-0.15536159 0.38365728 0.14524005
-0.12997971 -0.19294810 0.14162603
0.17655899 0.00160533 0.13973179
-0.14812216 0.22909194 0.13746926
0.16430561 0.04443078 0.11182615
0.04650054 -0.00676113 0.13056685
-0.16599061 0.04764363 0.12677942
-0.12371749 -0.04165541 0.15465905
0.15616256 -0.26484948 0.12503295
-0.10373259 -0.29961157 0.12316658
-0.11037964 0.29086336 0.14296621
0.15254401 0.07202730 0.14490682
-0.14998907 -0.26259714 0.14400595
-0.11207403 0.36779690 0.14689732
-0.10501471 0.24310870 0.15360612
-0.10663473 -0.16047677 0.14701681
-0.20829594 0.33814436 0.13062084
0.12846453 0.16828452 0.13715287
0.03016150 -0.12836351 0.05067860
-0.02276042 0.03056169 0.14138953
0.15948969 -0.22833338 0.15195733
0.13257244 0.21360889 0.12818761
-0.19148779 0.13222611 0.13045445
0.17702204 0.08706065 0.14198962
0.14397192 0.20281109 0.14155008
-0.00125758 0.40715861 0.14644097
-0.11023224 0.09507814 0.13960844
0.13611974 -0.15778522 0.10831071
-0.14128917 -0.32912344 0.14846189
-0.21683989 -0.18027863 0.12752351
-0.15871601 0.32600996 0.14578553
0.01894428 -0.39283812 0.13182503
0.03620298 0.33938068 0.14633815
-0.17465132 -0.29019478 0.14050961
-0.01092539 -0.01819540 0.13863564
-0.19846009 -0.27563101 0.13915433
-0.15736973 0.29652530 -0.09900944
-0.12030345 -0.08833531 0.12033196
-0.03210177 -0.16966112 0.13943899
-0.11414333 0.31238323 -0.10303149
-0.10185908 0.26303217 0.12228236
0.08232524 0.08697583 0.13876671
0.09658615 0.30663738 0.03085722
0.18045193 0.28257918 0.12834474
0.04449730 0.03125586 0.15231121
-0.20469072 -0.04743468 0.13880509
0.07468665 0.29500699 0.08606462
0.07577466 -0.00158345 0.13291499
-0.10801565 0.14756536 0.14328969
-0.09208113 0.35973993 0.12684412
-0.08848715 -0.08390193 0.13941035
-0.13417295 -0.12777446 0.14394526
-0.08808922 -0.28897449 -0.12571241
-0.04834443 -0.30149990 -0.07479365
0.05165101 0.11754823 0.13061777
-0.15425205 -0.25084460 0.14344567
-0.08836873 0.39772594 0.13349667
-0.04697856 0.27244440 -0.06375730
0.12662347 0.35102010 0.12688926
0.08811080 -0.14523487 0.14141935
0.05029633 0.27126423 0.13079065
-0.06338280 0.11636998 0.12717816
0.10558781 -0.30335823 -0.06588502
0.08869953 -0.34246165 0.08431973
0.18662062 0.21072894 0.14395848
-0.03072859 -0.13040924 0.11950080
-0.09952707 -0.31135195 -0.00830851
0.06735710 -0.32658112 -0.07315829
0.02704083 -0.40603518 0.11503986
0.01846141 0.11620235 0.12233570
-0.15471195 -0.24725659 0.14390470
-0.02230660 -0.17821476 0.13909523
-0.00300936 0.40138164 0.14705260
-0.14421095 0.07529977 0.13987511
0.12888806 0.08011970 0.12073809
-0.12709340 -0.23173359 0.12597255
-0.20427816 0.21220410 0.14719328
0.07656498 -0.07041411 0.11831123
0.06319118 -0.25036401 0.14127754
0.18221959 -0.18188572 0.12934749
0.01568614 -0.04964688 0.14349163
-0.14616026 -0.04318978 0.14584237
0.05421711 0.31743902 0.13488162
0.17574997 -0.30710292 0.14268357
-0.10556665 -0.40520617 0.14513859
0.03408619 -0.05165101 0.12770519
0.03108667 -0.32372147 0.14164393
0.20384291 0.18666951 0.12579742
-0.16218364 0.13022730 0.13503994
0.21836603 0.11337317 0.14017899
-0.07764889 0.31645423 0.13143443
-0.12385973 -0.28336897 0.14437544
0.13213381 -0.23940764 0.12811050
0.10130861 0.05303919 0.13247070
0.14551935 -0.23274678 0.14095494
0.06228961 0.28922075 0.14004712
0.04515912 0.24482268 0.13810024
-0.12653653 0.16024549 0.14848407
-0.08951867 -0.12408131 0.14294060
0.17181402 -0.15976538 0.14323914
0.15567365 0.13893843 0.16833195
-0.09039731 0.14026543 0.13897219
0.16934353 -0.01458172 0.13088489
-0.13950683 0.31129313 0.14335023
0.08807743 -0.02263524 0.14600071
0.08502223 -0.00892694 0.14137809
0.06187812 -0.11746064 0.14597929
-0.01804869 -0.25390714 -0.01421281
0.02770364 -0.10778693 0.14638960
-0.21554090 0.30722743 0.14032769
0.11239339 -0.31443155 0.00813074
0.06179636 0.06379467 0.14285606
-0.03865283 0.30249959 0.14143738
0.06483614 -0.04583836 0.13573372
0.02867413 0.06871565 0.14134146
0.12499944 0.09553998 0.14429174
0.00149482 0.14403254 0.13226967
0.00633239 -0.28161180 0.14665186
-0.14400905 -0.32237983 0.13827670
-0.04567659 -0.21916538 0.13577095
-0.00191997 -0.02804570 0.14132467
0.17109624 0.04349197 0.14324240
-0.04615223 0.36954901 0.13549994
0.04333752 -0.17728046 0.14407627
-0.05603936 0.10972939 0.14377080
-0.04996366 -0.06705594 0.13578162
-0.20383078 -0.10552251 0.14343715
-0.05920509 0.31671202 -0.05185093
-0.07805000 0.10147287 0.12402164
0.09225962 -0.34830531 0.14787291
-0.16236553 -0.02781214 0.13635138
-0.11745213 -0.26106161 0.14642051
-0.12171122 -0.11558431 0.12985034
-0.06142373 -0.13321811 0.14960769
0.12661093 -0.11318697 0.13496539
0.15834618 0.33140224 0.12875101
0.13377513 -0.27354676 0.14172950
0.11911988 -0.17009886 0.14542176
-0.08090372 -0.35062563 0.12525679
0.04501935 0.24102588 0.14636439
-0.09788795 0.29975885 0.02085153
-0.15610732 0.28752971 0.14014842
0.10719724 -0.23129673 0.13592455
-0.04470888 -0.10684005 0.14496320
0.21255443 -0.10400410 0.13803171
0.09116013 -0.35538095 0.14384353
-0.04783825 0.17951421 0.12844393
-0.15337616 0.40433788 0.13273960
-0.10321560 0.18301730 0.14932279
0.10240158 -0.26549959 0.11520518
-0.13712783 -0.42693064 0.14372833
0.12313843 -0.24696684 0.13836341
-0.05548803 -0.27932957 0.14213690
-0.17014620 0.14423741 0.12512657
-0.14956951 0.35520542 0.12369526
0.12941052 0.18934125 0.12767351
-0.10368448 -0.10518619 0.14283775
-0.15668514 0.01755565 0.14460704
0.08952591 -0.08140136 0.14279161
-0.03909841 0.31659040 -0.00675032
-0.02425222 -0.15633003 0.14928193
-0.00869776 0.02746177 0.14430405
0.05609507 0.05989639 0.15381935
-0.01481944 -0.31414482 0.13609023
-0.06841472 0.14309271 0.13767374
-0.21234262 0.19066808 0.14657682
0.14740062 0.14203401 0.14997788
0.03688910 -0.03449200 0.14333257
0.01369783 0.06780770 0.13500704
-0.02710983 -0.13377248 0.14397913
0.19402796 -0.12492944 0.14954264
-0.05760752 0.13391966 0.14686033
-0.04391524 -0.18246807 0.03904468
0.18456465 -0.14269969 0.13524780
0.22839144 -0.13337472 0.15701881
