1368
-0.01540080 0.02065963 0.05706628
0.14992887 0.29176706 0.12268807
0.22069186 -0.33985734 0.13392404
-0.14956114 -0.07971106 0.13595989
-0.08734061 0.31747204 -0.02417593
-0.13966434 -0.00466950 0.13461758
-0.06595379 0.31051102 0.14133674
-0.07942667 0.21974607 0.13980401
0.15314686 0.31188488 0.14175698
0.03518612 -0.02717644 0.14219141
0.05619958 -0.17455156 0.13254939
-0.16433048 -0.08828611 0.13210736
0.06311457 0.35189283 0.14117464
-0.09511241 -0.32282141 0.14674990
0.03100300 0.33663833 -0.02018823
-0.02068758 0.12070677 0.14026871
0.12475199 0.28682631 0.14566931
0.20008861 -0.05981775 0.12029611
0.21270618 0.15161625 0.13770506
0.10004022 -0.26855829 0.15142784
0.07129681 0.31217128 0.12707621
-0.22286683 -0.20991807 0.14725178
-0.13824715 0.04883949 0.14350219
0.11558562 -0.34255925 0.15064004
0.10598800 -0.32455552 0.10528187
0.07290684 0.26052892 0.13690624
-0.18465352 -0.09799153 0.13861975
-0.05507587 -0.09477661 0.14626732
0.00380227 0.21721214 0.14613156
-0.04881436 0.29124370 0.11521190
0.12479080 -0.34039834 -0.10645593
-0.06562529 -0.35241011 0.13672131
-0.20686457 -0.02947976 0.13676740
0.04602671 -0.30504316 0.14387015
0.09431487 -0.12215662 0.15134716
0.09704146 0.31404364 0.10767876
0.08556910 -0.02066236 0.14057425
0.08296261 0.20718938 0.13198887
0.11421400 0.32380182 -0.03803790
-0.15551811 0.10987470 0.14127615
0.00582629 -0.41154051 0.13644519
-0.11859235 -0.35166642 0.11984205
-0.18150839 -0.12003105 0.11528644
-0.03651033 -0.11362366 0.08587286
0.00210167 -0.33432338 -0.12548003
0.03474338 0.31026983 0.14388581
-0.14008710 -0.12271698 0.14580548
0.06239174 0.21745840 0.14903453
0.03543784 -0.04932107 0.12630700
0.03888564 -0.23178689 0.09586321
-0.20532084 -0.23792031 0.11712009
-0.21547601 -0.33221763 0.14899895
0.12589628 0.33034503 -0.07381127
-0.05186192 0.26159614 0.14633678
-0.19398907 -0.06125901 0.13086021
0.01113860 -0.33597529 0.14878879
-0.01412468 0.20439127 0.14757620
0.02327127 -0.32057032 -0.00302104
-0.20621888 -0.19427705 0.12765849
-0.01444135 0.27489465 -0.00676946
0.02210976 0.18969665 0.14192310
0.12183879 -0.02887842 0.13661487
-0.02924828 -0.21186000 0.13792475
-0.17114200 -0.22574550 0.14436010
0.04186755 -0.31923983 0.14443438
-0.17319563 -0.30291557 0.10974337
0.12859443 -0.41990197 0.12582317
0.08764336 -0.33409947 0.14028224
0.11868866 -0.24781343 0.14846078
-0.10986087 -0.15099616 0.14560673
-0.07628005 -0.02970414 0.13874671
0.09001966 0.09781086 0.12554704
0.07580256 -0.08175424 0.14448741
-0.04007517 -0.01192801 0.14888701
-0.03645829 0.24392793 0.13545039
-0.11137619 0.11729017 0.14157790
-0.07645304 0.00416473 0.14821282
0.03616812 -0.01227967 0.14878410
-0.05320118 -0.18491714 0.12547961
-0.15199257 0.02488059 0.14687251
-0.13890985 0.07583085 0.14653020
0.20891881 -0.06169464 0.13171396
0.13187537 0.33184981 0.08207219
0.13600779 0.33374280 0.12274897
-0.20762768 0.06989436 0.13540053
-0.20620140 0.04209451 0.14543174
-0.06862341 0.22461405 0.12129499
-0.17802568 -0.19912338 0.13227165
-0.23201531 -0.00774544 0.14394540
-0.17116466 -0.41628796 0.14501096
0.10743561 0.35073680 0.12571798
0.21109813 0.38984272 0.15030730
0.06002576 -0.21538666 0.11636914
-0.07603678 -0.31668505 0.14520833
-0.05972587 -0.31966153 0.14121035
0.12409201 -0.28160754 0.14430918
0.00489224 -0.33262596 0.13274899
0.18485670 0.07817981 0.14262575
0.15033120 -0.07496735 0.14594726
-0.15393329 0.37520429 0.14698344
0.11276166 0.37419397 0.13897061
-0.05468104 0.34600976 0.14055972
0.12284184 -0.04793967 0.14084180
-0.16467436 -0.15523022 0.14515395
0.06154847 0.33969605 0.13156779
-0.04849312 0.35924345 0.14544913
0.11349726 0.37907422 0.12877993
0.14120555 0.27296925 0.13908398
0.20130002 0.36274117 0.14000729
-0.08584388 -0.24319886 0.13766591
0.11682395 -0.33188879 -0.14538302
-0.15273857 -0.21706252 0.13975108
0.12227534 -0.33084095 -0.00066483
-0.21078573 0.20140328 0.13996327
-0.05888035 -0.31796342 0.14396049
0.04492250 0.07128651 0.14090809
-0.05255289 0.16391377 0.12640128
-0.13770425 0.33870530 0.14070614
0.09164963 -0.31410894 0.15552820
-0.16402587 -0.25255606 0.15926872
0.02217127 0.00496014 0.13724220
-0.02812503 0.34542325 0.15321238
0.07825729 0.27386630 0.05469188
0.12347025 -0.38223881 0.14355320
0.15400484 -0.30088127 -0.10843077
0.13885708 -0.17891128 0.13711704
-0.10330129 0.39169669 0.12673394
-0.15113387 0.14262201 0.14655270
0.10441603 -0.36073855 0.13784356
0.05660774 -0.22412381 0.05398640
-0.09974974 0.21407980 0.13445565
-0.10866230 0.01038450 0.13032083
0.13410580 0.08275847 0.14352040
-0.17503437 0.05811462 0.14123288
-0.03580140 0.23700997 0.13389900
0.07209188 -0.26638138 0.13956749
0.04084837 -0.08845906 0.14499113
0.06229201 -0.31246465 0.11192009
-0.10531616 0.31387150 -0.00821485
-0.04114733 -0.35343933 0.14293164
-0.00505561 0.09568591 0.14618589
-0.13301495 -0.11798105 0.14726341
-0.09861745 0.19283661 0.14774536
0.05503793 0.18951815 0.13874032
0.12294280 0.25163341 0.13984454
0.10602343 -0.01755318 0.13086629
-0.02770726 -0.33553308 0.09890266
-0.10473626 -0.12539731 0.12242821
-0.06550911 -0.33091900 0.13790292
-0.00575016 -0.19057879 0.02279883
0.17953604 -0.03066728 0.13786036
0.15822195 0.19728374 0.11961435
0.06089073 -0.41342217 0.14635494
-0.01375968 0.28373569 0.03047848
-0.08085802 0.37705487 0.13244823
0.12957317 0.38113859 0.14644641
0.21008250 -0.20215990 0.14644969
-0.08959210 -0.16294697 0.14105982
0.06352986 -0.29067826 -0.02642533
-0.03087215 0.15825325 0.08047733
0.12516756 -0.16751158 0.14317454
0.03228370 -0.06756885 0.14154412
0.04740020 0.27497286 -0.03801507
-0.01316844 0.09787516 0.14486229
0.15984458 0.27445096 0.13031971
0.08577539 0.31785432 -0.07673980
-0.02299590 0.19489226 0.13423663
-0.06495288 0.31807843 0.14380647
0.10436891 0.33455309 0.14060153
0.03444989 0.17665559 0.04776055
-0.10879697 0.37836507 0.12374557
0.21273291 -0.28565300 0.13410431
-0.09388676 -0.11949168 0.12191566
-0.14276953 0.36169374 0.14654034
0.04260221 0.32139361 0.13596404
0.10394661 -0.01354648 0.10675809
0.00505211 0.00451346 0.09859644
-0.07852660 0.30403218 0.10652995
0.04987662 -0.15026000 0.15000230
-0.16657530 -0.02075984 0.14753424
0.05220296 -0.32561803 0.11817288
-0.11853993 0.37366623 0.12371519
-0.01188324 -0.34214053 0.14361449
-0.05533244 0.08398445 0.14410710
-0.18435672 0.18049002 0.14362600
0.03185055 -0.08391552 0.14824706
-0.11110619 0.12663168 0.14216161
-0.03016441 0.36343473 0.11526735
0.09701802 -0.08859093 0.13411745
0.05109743 -0.22685240 0.15245508
0.09530542 -0.16312504 0.14751500
0.16603445 0.27808183 0.14105599
-0.03386439 0.32827258 0.14463030
0.19654363 0.08556280 0.14673856
-0.05893906 0.25234753 0.14776930
0.06953961 -0.29556802 0.13907212
-0.15339011 -0.15209880 0.15108925
0.11266553 -0.31380245 0.12271047
-0.10521571 0.02821048 0.13863648
-0.02505359 0.15950635 0.04286336
0.16015872 0.34050378 -0.11379419
-0.13306181 0.30412418 0.14332630
-0.13950224 0.23351043 0.14085497
0.03940619 -0.32170305 0.14240813
-0.05425838 0.25217998 0.15387462
-0.09209020 -0.33616149 0.14454219
0.08242691 0.27659792 0.14451128
-0.06628387 0.05860535 0.14526775
-0.04264496 -0.06751271 0.13158892
0.08989753 -0.43025458 0.12578265
-0.08200896 -0.33437365 -0.03627694
-0.15181129 0.16176824 0.14281699
-0.05887824 -0.24561033 0.04260205
-0.08772780 -0.38902742 0.12800312
-0.11291571 0.14856488 0.13576108
-0.09449718 0.10338952 0.13818312
0.01875785 -0.21780905 0.14005202
0.02580100 0.08992275 0.14238644
0.02740727 0.13148417 0.13095908
0.15447241 0.35082808 0.11924709
0.10663530 0.04785433 0.13998729
-0.00971228 -0.21117252 0.13101447
0.13836256 -0.30765480 0.14608054
0.03720090 -0.20888101 0.13045159
0.04259498 0.15178549 0.12357056
-0.14158195 -0.33083346 -0.05727592
0.14773801 0.15782812 0.14267135
-0.02962408 -0.04835811 0.13241845
0.06326701 0.30933142 0.13494100
0.07049662 0.12964037 0.13316758
-0.04817031 -0.38710174 0.12025804
0.01001027 0.15625376 0.14236914
-0.05322971 0.32907897 0.14270422
-0.07820712 -0.23570837 0.14852907
0.07502869 -0.02052718 0.14946862
0.14800435 -0.23098281 0.10594732
-0.19401145 0.18769547 0.13698643
-0.16416767 -0.09149172 0.14673875
-0.09342465 0.03251718 0.15548183
0.02016335 -0.33173138 -0.07826293
0.07213647 0.27228087 0.14891499
0.04669756 -0.31752610 0.13560098
-0.04612857 -0.39537159 0.11838317
-0.05947503 0.35528380 0.15115836
0.00555310 -0.31485927 0.13706075
-0.04473011 0.01172594 0.15330040
-0.06082572 0.06831612 0.14758410
0.20186611 -0.10263585 0.14059630
0.01720456 0.30298087 0.11554924
0.04080211 0.27466276 -0.00603724
-0.16379657 0.24137723 0.13885964
-0.12293498 0.32618833 -0.12988934
0.17529248 -0.09240007 0.11949129
-0.07125376 0.33958042 0.15182307
-0.03243886 0.16860527 0.13388643
-0.02008314 -0.05827449 0.14466402
-0.06228560 -0.03682963 0.14200385
0.13166629 -0.31956533 -0.08155973
-0.09043685 0.34347764 0.13457766
0.16886370 -0.22746325 0.14770463
-0.10960650 -0.12181012 0.14279485
-0.01408463 -0.10444075 0.05061871
0.17947242 -0.05076925 0.14796373
-0.09770664 -0.32849225 0.00658827
-0.09011606 -0.18780079 0.11726838
-0.09048375 -0.07056393 0.14975522
-0.07599594 -0.22847897 0.14720786
0.17205375 -0.16127676 0.12688816
0.10856463 0.30335069 -0.02482158
-0.02008217 -0.28675681 0.14432199
0.12293410 -0.34950584 0.13268822
-0.02746330 0.12751128 0.14341439
0.12745714 -0.23795339 0.13122213
-0.22313461 0.22437558 0.14295501
-0.22184335 0.24922743 0.13439125
0.17749171 0.37191111 0.11939108
0.20525943 -0.06038781 0.13882712
-0.11932673 -0.29297948 0.12837061
0.12280554 -0.04816322 0.12412079
0.11442335 0.20975234 0.13095516
-0.17166969 -0.35631582 0.12664095
-0.02303474 -0.28756467 0.08895265
0.02613915 -0.22458708 0.14991771
-0.07637928 -0.19172919 0.12456048
-0.09439071 0.29871026 0.13835226
0.00180132 0.07278544 0.14285627
-0.22233257 -0.09776758 0.13984078
0.09972152 0.20300665 0.13957453
0.10066020 -0.31815618 -0.05812541
-0.10956955 -0.09536366 0.14625107
0.07572280 -0.01945016 0.14732923
0.15625864 -0.18295661 0.14077234
0.03996646 0.01956237 0.16135664
-0.01053476 0.28771371 0.11579931
-0.11752947 0.23898406 0.12618551
0.19021642 0.42316049 0.13500860
0.10118530 -0.24734208 0.14297876
0.02133276 0.17649043 0.14690343
0.15656979 -0.36777878 0.14741711
-0.13314044 0.05933346 0.11966860
-0.04314737 -0.25502199 0.13616738
-0.07256667 -0.03295157 0.14373234
0.12996891 -0.00294791 0.14786753
-0.04922116 0.14681554 0.14525990
0.15585814 0.20419477 0.14670691
0.10990185 0.01886545 0.15186872
-0.14181463 -0.34061417 0.10058071
0.07777645 -0.36173096 0.13175964
-0.07291949 0.21779294 0.06126095
0.03176647 0.02933246 0.11955796
-0.21971577 0.03476821 0.14020747
-0.04136007 -0.00601768 0.14317289
-0.20519438 0.26787972 0.13814595
-0.08740713 0.06897476 0.15335494
-0.07378678 0.26660693 0.01819769
-0.01304056 -0.38446650 0.13064544
-0.13055524 -0.28533089 0.15585673
0.13702853 0.36440390 0.14232282
0.09006920 -0.06814191 0.13371274
-0.13260850 -0.17514080 0.14506267
-0.16600558 0.01601674 0.14540502
-0.07180373 0.30845982 0.10161223
-0.11900986 0.13092947 0.14766988
-0.00362424 -0.17408958 0.13417733
0.11915633 -0.19538356 0.14406183
-0.13988556 -0.35280129 0.13125652
-0.12195859 -0.34414500 0.12023821
0.12726422 -0.16386923 0.14745578
-0.14501767 -0.01321118 0.13558732
0.13682882 -0.33010548 0.14831454
-0.01988352 0.11447315 0.14968535
0.16879246 -0.26210102 0.12730722
0.05256245 -0.23762755 0.04562159
0.03638979 -0.06908946 0.14906995
-0.01614286 -0.28189170 0.13943821
-0.05427722 0.07176509 0.05550794
-0.06120115 0.19651574 0.14569089
0.08122347 -0.32100490 0.13865975
-0.10226230 0.13770691 0.14512840
0.03121254 -0.27905819 0.01988949
-0.19877061 0.29684252 0.12883042
-0.19024608 0.30842176 0.12781328
-0.08166689 -0.12083605 0.15021126
-0.07199702 -0.26895761 0.14549664
0.16335194 0.13026702 0.15514490
-0.13272059 0.34145287 0.13600175
-0.02130704 0.22583731 0.15108758
0.15897702 -0.25818166 0.14098494
-0.15114534 0.00524133 0.14298226
0.17843288 0.29612681 0.14806950
-0.11534265 -0.10731185 0.14233834
-0.09835383 -0.39535221 0.12390028
-0.18518586 -0.22705133 0.12480529
0.02076307 0.05151901 0.14697909
-0.10919588 -0.17298058 0.14644004
-0.18020184 0.01734313 0.14305869
0.09190661 0.30903214 0.15832473
0.21658818 0.26326469 0.12205266
0.20056441 -0.27026001 0.15129736
0.03334277 0.08183627 0.05214961
0.02166015 0.31034392 -0.09892437
-0.03981364 -0.11600397 0.14702724
-0.10543648 -0.30277202 0.04824319
0.14818259 -0.12584569 0.15017755
-0.09742619 0.31612915 0.07931499
-0.03503333 0.42226535 0.14247657
-0.11391938 -0.27913687 0.08245279
0.11339965 0.24927200 0.14237899
0.07572135 -0.27800843 0.14017628
-0.06459524 -0.19127263 0.12983412
-0.13734740 -0.17706332 0.14635140
0.13502488 0.08586305 0.15001862
-0.09029704 -0.24897680 0.14237340
-0.04567465 0.04110837 0.14888456
-0.14267996 -0.29888946 0.10359944
-0.14331913 0.03796480 0.14481562
0.19607905 0.21781617 0.13600853
0.01672516 -0.12590601 0.08178650
-0.15457085 -0.28126982 0.13440506
0.15015544 0.09387138 0.14516571
-0.18349275 0.16424197 0.12647402
-0.15566425 -0.20814137 0.14561589
0.11371883 0.30640274 0.03987969
-0.09127873 0.32138509 -0.07747561
0.07077086 -0.08706579 0.14091404
0.17516132 -0.06926899 0.14013699
0.08881040 -0.05239454 0.14852676
0.18482129 -0.02328011 0.12297144
0.14900017 -0.19327620 0.12097919
0.11104290 0.08682660 0.12421560
-0.08934649 -0.26962221 0.14281058
-0.08387548 -0.05405152 0.14297542
0.04763249 0.03843419 0.14086632
-0.13409202 0.16083027 0.14818341
-0.12743691 -0.11934960 0.14611384
0.11447422 0.07933540 0.14870834
-0.22264913 -0.25821450 0.12579286
0.18746383 0.33598682 0.10869578
-0.01139625 0.38774174 0.14571214
0.13267101 0.35414505 0.13580099
-0.04755215 -0.31185588 -0.12772213
0.05412325 0.07688193 0.13611549
-0.16288123 -0.13455145 0.13334261
0.10079771 0.28515425 0.12274548
0.07996476 -0.07813233 0.14490078
-0.00142984 -0.10419091 0.12030202
-0.13842712 0.14137276 0.13375619
0.11119325 -0.33295932 0.14273745
-0.14548621 0.32434723 0.12701112
0.01163666 -0.23535937 0.04495006
0.07675725 -0.33634514 0.14465380
-0.01720113 -0.32736060 -0.02457096
-0.01773073 0.13530180 0.13825157
-0.01649693 -0.34466457 0.14075495
0.01799614 -0.20547967 0.13397783
0.14692074 0.34376150 0.13885692
-0.06165102 0.34231287 0.13972774
0.11557418 -0.30235621 0.13552734
0.03600362 0.20322832 0.13349429
-0.13693061 -0.37494892 0.13436432
0.07601200 0.24819174 0.13696501
-0.15324615 0.24624482 0.14350043
0.13237676 -0.15451042 0.13906628
0.05356792 0.22997600 0.14428581
0.01731544 0.03595147 0.14756662
-0.13484907 -0.13684529 0.15219064
-0.12751901 -0.28364038 0.09186727
-0.20992216 0.09919554 0.12332398
-0.01008779 0.14240836 0.14619394
0.13594423 0.12344873 0.13298009
-0.08492820 0.38380140 0.13640141
-0.14962763 -0.06756913 0.14406423
0.11215311 0.28366786 0.13724661
0.16404513 0.28541794 0.14619003
-0.15703216 0.32003677 0.14395660
0.14130072 -0.28698874 0.12726414
-0.12908952 -0.15635961 0.14624611
-0.14415777 -0.06822623 0.12277013
0.12123451 0.29501772 0.11526606
-0.05903498 0.04164539 0.13944155
0.00405735 0.08475167 0.14233854
-0.01019394 0.20948637 0.06630584
0.08973223 -0.29069808 0.14929950
-0.12331736 -0.33739144 0.10049001
0.07082585 -0.39027971 0.14288898
-0.02590760 -0.22926737 0.11717455
0.16775380 0.35437033 0.10729733
-0.03710853 -0.05652326 0.14170599
0.09445740 -0.27719069 0.13369173
-0.09006247 0.41841501 0.13658573
0.08623487 0.35885850 0.15005906
0.15894446 -0.33750248 0.12936747
-0.00090895 0.32981116 0.14889447
0.14302203 0.32961991 -0.05830188
-0.09966548 0.31756333 0.06486002
-0.09935674 0.11675404 0.13022003
-0.10586785 -0.08867162 0.14159462
0.12927355 0.30854672 0.05689898
0.16592306 0.40151289 0.14511064
0.06909849 -0.31505930 0.03872897
-0.15234508 0.36781216 0.12427536
-0.16421081 -0.30802965 -0.13155092
-0.14038114 0.41756374 0.13984874
0.09674001 -0.05195225 0.14606561
0.02851851 0.40892300 0.14882584
0.05559132 -0.15708263 0.14578043
0.15498362 0.00593363 0.13083392
0.10628559 -0.30531174 -0.12427032
0.14285830 -0.32087994 -0.12172766
-0.01120364 -0.35965028 0.13853167
0.10419473 -0.27108192 0.14540751
-0.06165873 -0.02143976 0.13211334
-0.16404015 0.19845463 0.13673887
0.05670653 0.04995240 0.15033975
-0.11566489 -0.32605004 0.11003231
-0.10994270 -0.32539105 0.15532933
0.13692585 0.02384228 0.14607613
0.08555934 -0.28499857 0.08547379
0.07180318 0.37584966 0.12824415
0.04396781 0.12699138 0.14213127
0.14729217 0.34126708 0.13004227
-0.02967146 0.40091845 0.14047046
-0.04592026 0.19617201 0.13435407
-0.06907599 -0.38691837 0.13831882
0.05614060 -0.17396080 0.14617920
0.01513254 0.07611680 0.14105023
0.12595730 0.33699286 0.12157807
-0.12283149 -0.20719713 0.14463519
-0.21657932 -0.22952604 0.10739687
-0.03589558 -0.05468735 0.14019501
-0.20300052 0.09131930 0.14994003
0.01412339 -0.09799010 0.08083491
0.05954864 0.03184047 0.14841807
-0.13028133 -0.02620451 0.14638628
0.19780958 0.28538245 0.13223472
-0.14535713 -0.15751660 0.14659049
0.09430796 0.32901484 -0.10358080
-0.05304518 -0.34998327 0.11881168
0.09802955 0.35035044 0.14237520
0.02376630 -0.00316132 0.13902420
0.12547973 0.07807887 0.14894246
0.00582940 -0.06804878 0.13794981
-0.07632945 -0.07030897 0.13851106
-0.06163153 0.08086801 0.14355901
0.13903973 -0.12698039 0.12356085
-0.05599547 -0.12472091 0.13416371
-0.12634747 -0.30465907 0.08600836
-0.03685803 0.09461202 0.13994953
-0.07567324 0.07186691 0.15611833
0.15299432 0.31584644 0.11716595
-0.16664928 -0.20017430 0.14384666
0.12432746 0.26227379 0.14901513
-0.19038114 0.02791753 0.11419877
0.01051619 0.34926543 0.13364229
0.08140478 -0.25807577 0.13619980
0.12931658 -0.18476185 0.15144515
0.01863511 0.02696789 0.13913327
0.02516926 -0.33173189 0.14628264
-0.13005751 -0.32947558 -0.00304675
0.14258590 0.38654688 0.15153797
-0.17479365 -0.18401380 0.15172026
0.19480968 -0.31247225 0.13214549
-0.01857364 0.37163800 0.14176655
-0.08706041 0.07988288 0.15090603
-0.14457414 0.12387891 0.14823550
-0.09831041 -0.33132157 -0.04276646
-0.04370685 0.26098409 0.14181262
0.09857362 0.32766053 0.05043062
0.06447467 -0.18632527 0.13366148
0.09514396 -0.01633177 0.14971206
-0.07398947 0.22791101 0.14694285
-0.11130761 0.09824326 0.14475630
-0.05936447 -0.23877326 0.14327623
-0.12549914 0.29605690 0.05569538
-0.15531975 0.29771239 0.11024125
-0.12053388 0.28688049 0.08902383
-0.08040026 0.10987588 0.12719081
-0.08476566 -0.24867806 0.14750384
0.22737949 0.04607093 0.14535820
0.03391526 0.20527254 0.12541395
0.00872497 -0.25399229 0.13909419
-0.11013243 -0.33326399 -0.13303776
0.13634691 -0.14342186 0.13357161
-0.06486572 0.35951537 0.12572832
-0.13193350 0.31111345 0.14254722
-0.07902452 -0.37959045 0.14713472
0.13193309 0.07662834 0.14343750
0.13132195 0.17397018 0.14224899
-0.13671951 -0.27605152 0.14555538
0.04155746 0.05476829 0.14409484
0.16714269 0.22387390 0.13794860
0.09774791 -0.10816436 0.12665924
0.10054391 -0.41058004 0.13345653
-0.12436478 0.14628157 0.14035773
-0.14070402 -0.32150695 0.15325433
-0.19266063 0.01518003 0.14305304
0.16210982 0.09283313 0.14235069
-0.01366031 -0.04278978 0.14163595
-0.08434616 0.02472845 0.14200905
-0.10288483 0.27032951 0.14392805
-0.11798106 -0.33163726 -0.03706855
0.07574611 -0.13933517 0.11493313
0.02946133 -0.28305516 0.13718332
-0.12022687 0.18414372 0.14288755
-0.00524957 -0.29266760 0.11990113
-0.03338319 0.09413445 0.11955724
-0.09157594 0.13855007 0.14234149
0.13941371 0.07543604 0.13750172
0.10838820 -0.31371197 0.14151150
0.13680436 -0.06662924 0.14029609
0.07194055 -0.19381051 0.13233595
0.02226423 -0.02512643 0.13876739
0.15544672 0.33086458 0.14130789
0.17307794 -0.13041495 0.13363986
0.14863938 -0.13583690 0.14722791
-0.13167244 -0.15702038 0.10734762
-0.05319929 -0.10667734 0.13012350
-0.07075745 0.40020737 0.13558325
-0.10896671 0.08586822 0.13922244
0.01322270 0.27639389 0.10134924
0.02617159 -0.14235942 0.12828055
0.04276519 0.27422789 0.15395924
0.09030366 -0.16746505 0.13270850
0.13529056 0.27994180 0.13919495
-0.08878342 0.35428983 0.13286246
0.19704056 0.05742000 0.14354736
0.08350022 0.09054318 0.13774747
-0.05585088 0.26260054 0.13227963
0.05766748 0.07953160 0.14713652
-0.04946700 -0.16703990 0.14905132
0.04842430 -0.38957256 0.12346244
0.00038790 0.41781101 0.12862183
0.03654024 0.05566395 0.02937082
-0.08420490 0.18618807 0.14437616
0.06730424 -0.17588666 0.14322290
0.16201103 -0.33187035 -0.13031900
0.11452542 -0.32718068 0.12282470
-0.14699769 -0.37977007 0.13127284
0.06077443 0.09473466 0.14324567
-0.08035414 0.31052932 0.14433891
-0.00697447 -0.18603007 0.14527194
0.06332459 0.00459614 0.14517894
-0.06928213 -0.09736003 0.14847480
0.02862173 0.39314896 0.15683968
0.04261030 -0.16363902 0.13193931
-0.16665056 0.29383901 0.12009543
-0.13352263 -0.34814703 0.13115785
0.06559034 -0.22503653 0.14879364
0.12986746 0.03457254 0.14277014
0.10728696 -0.30483574 -0.10435213
-0.08957652 0.27966765 0.14263469
0.09822500 0.19879644 0.14791927
-0.16743144 0.27917677 0.10585517
-0.18610579 -0.13021144 0.14147817
-0.00855897 -0.31104752 -0.02733488
-0.21008462 0.21967758 0.14980257
-0.13064325 -0.36043584 0.10767332
0.11813262 0.27120554 0.13013713
-0.03764911 -0.29778656 0.12277582
0.13987356 0.20372613 0.13796981
0.17000785 -0.12530704 0.11674564
-0.21421595 0.19425899 0.11526445
0.04616418 0.26059994 0.09126717
0.01163620 -0.32302937 0.11481142
-0.11179663 0.29114836 -0.05088668
-0.14134385 -0.08982024 0.13762167
-0.01644729 -0.06950816 0.14558759
0.06435396 -0.39519733 0.13118052
0.03064899 -0.19066051 0.02215218
0.20255402 0.13565984 0.12823096
-0.12689194 -0.06441869 0.14395036
0.11893057 0.37023979 0.15309942
0.04421628 0.32477772 0.14111865
-0.03353657 -0.25594902 0.11307921
-0.08941603 -0.31497252 0.14230308
0.06704903 0.35664451 0.14249198
0.13342786 0.32733086 0.07252109
0.05573130 0.26571029 0.12643676
-0.12071162 -0.13681151 0.12450418
-0.02643774 0.03260402 0.14573717
-0.06236896 -0.13579233 0.15008049
-0.04309928 -0.27546230 0.14361663
0.16442220 -0.32283503 0.13367455
0.19030462 -0.01097879 0.13607317
-0.12210229 0.30430233 0.11041878
0.05677325 -0.12049216 0.14132504
-0.05679027 -0.35271952 0.14508218
0.07044591 0.34812182 0.14062189
0.16627280 0.22758019 0.14296310
-0.06424387 0.22410083 0.14537905
0.07171975 0.01211297 0.14719269
0.14443648 -0.03602614 0.13024749
0.00924790 -0.03749014 0.12062555
-0.17234108 0.07234982 0.12824959
0.01143793 0.38054916 0.14554137
-0.01127422 0.13060655 0.13974100
-0.02929201 0.40254515 0.11802168
0.16061111 0.18791068 0.14407212
-0.00834537 -0.30028820 0.14241885
-0.11632843 0.08757805 0.15192907
0.10530096 -0.41798615 0.14276718
-0.05144970 -0.27539349 0.13547489
0.02084982 0.27042276 0.14797172
-0.08025619 -0.35662857 0.13145646
0.11023416 -0.38338923 0.14637014
-0.09428395 -0.23326121 0.15097740
0.09645595 0.22205302 0.14650919
0.13173184 0.05960306 0.11432239
0.08743309 -0.20464264 0.14216253
-0.14031529 -0.18162835 0.14386342
0.12468471 0.31661680 0.10584577
0.09365477 0.30292779 -0.06364211
-0.19056389 0.14615592 0.14320359
0.16412683 0.03479175 0.13274354
0.02941581 0.30148923 0.11523528
-0.18321416 -0.28975052 0.14239854
-0.13998672 -0.33808237 0.03623335
-0.13561994 -0.35092989 0.14148042
0.08769234 -0.06918428 0.14545035
0.15065965 0.16523957 0.11437730
0.18654491 0.11215489 0.12961556
0.07345845 -0.07194696 0.14550376
-0.13094945 -0.03887219 0.13905834
0.07784494 0.30240929 0.15429381
0.01016834 -0.31066865 0.14009857
0.14850166 -0.32427454 0.08895698
0.02252242 0.31316960 0.15301935
0.02942287 -0.02245454 0.14644054
-0.07143514 0.26971668 0.13229463
-0.19120544 0.17188653 0.14499828
-0.03712339 -0.03485195 0.11479577
-0.16389760 -0.14484304 0.15379326
-0.01969951 -0.24350186 0.14385726
-0.06852456 -0.32357991 0.01091250
0.17100701 -0.25789610 0.14140184
-0.04455432 -0.16079381 0.13562655
-0.02014484 -0.14195599 0.14183885
0.13534755 0.34255153 0.13394099
-0.19264430 0.42355663 0.13352926
-0.17704624 -0.10679859 0.13484108
-0.04018156 0.30345762 0.13911183
-0.04217664 0.33197123 0.15175177
-0.05006197 -0.40060329 0.14406018
0.06719159 0.13777727 0.14687553
-0.10583296 0.35561275 0.14379230
0.11735327 -0.24358152 0.13724658
-0.22447297 -0.20992745 0.14311306
0.16945368 0.26738977 0.12950683
0.18030006 -0.15096542 0.14632910
-0.13420661 -0.27535224 0.11857173
-0.17274418 0.21804023 0.14745812
0.19724110 0.29663101 0.13314775
0.13809907 0.20235449 0.14508824
0.09235178 0.19482580 0.13919558
-0.05863059 -0.22683419 0.14855622
0.04109420 -0.21847749 0.14119700
0.11568318 0.05221739 0.12814371
0.12861910 0.30833232 0.13598563
0.22868128 -0.00375172 0.13596359
-0.16720963 -0.27345386 0.14506754
-0.07650433 -0.04036740 0.14571479
0.04995623 -0.19143777 0.14429410
0.04948718 -0.01153944 0.14335509
-0.12386779 0.17684457 0.14486255
-0.11203200 -0.37796605 0.13250044
-0.15230946 0.36833459 0.14755067
0.13999267 -0.15929721 0.13719183
-0.12119931 0.23082514 0.14337711
-0.05177242 -0.18570687 0.14111197
-0.08843809 0.31333083 0.08593166
0.20443283 0.13716513 0.13076207
-0.04349788 -0.39712954 0.14633848
0.04300665 0.05279469 0.14011623
0.07845950 0.08880680 0.14714253
0.05360920 -0.16818270 0.13434422
0.06888027 0.32853928 0.14404941
0.14241011 -0.36145353 0.14315315
-0.17311978 0.27034184 0.15679990
-0.17269479 -0.05203730 0.11782643
0.01326574 0.17655335 0.08218831
-0.10311078 0.07135716 0.14349708
-0.01261274 -0.31994474 0.14954375
0.18841591 0.05870843 0.13036691
0.01866088 0.34419456 0.13131240
0.03033818 -0.23353285 0.00435034
0.01226344 0.32991859 0.14358597
0.11885259 -0.14797962 0.13875109
0.04188839 0.30020756 0.08592531
-0.00407168 0.21554750 0.02136044
-0.20634976 -0.36596140 0.15058701
-0.11848333 0.29103658 0.15045097
-0.05449628 -0.04030284 0.13833213
-0.11907451 0.25338376 0.14365564
0.14532366 0.31405395 -0.11002803
0.17918190 0.08194033 0.11818277
-0.04740708 0.13706458 0.14324036
-0.06165913 0.33965158 0.13479814
-0.03568373 -0.14919770 0.14395991
-0.09397425 -0.04718011 0.14583403
0.19377843 -0.22590491 0.14109497
0.08745179 -0.38160643 0.11279719
-0.09182285 -0.34144026 0.14249438
0.03713501 -0.38979468 0.11357196
0.13817114 -0.31324604 0.03466551
-0.16879871 0.32901427 -0.11717282
-0.08281095 0.06383125 0.12832347
0.17473103 0.22857651 0.12579978
-0.18228707 0.03051163 0.13845602
-0.13218871 -0.40608934 0.10025489
-0.19355902 -0.06452910 0.15167573
0.13047600 -0.32007098 0.11336121
0.04643562 -0.06073968 0.14438762
-0.12391070 -0.13928637 0.14157106
-0.01379384 -0.38490918 0.13462764
0.07744901 -0.10014506 0.14236122
-0.21220171 -0.27810407 0.12689427
-0.06838052 0.11010367 0.11451031
-0.16295214 0.27279785 0.13866788
-0.10242955 0.13056022 0.14876693
-0.07728908 0.30141202 0.14075626
-0.12809369 0.18596241 0.13769202
-0.00348621 -0.39635891 0.14296277
0.02561624 -0.16719332 0.10496806
0.21712871 -0.22601002 0.12065016
0.04797554 0.31084800 0.12329817
0.04014466 0.29571167 0.12165266
-0.15381134 0.29177496 0.14103517
0.07436459 -0.00551234 0.14270398
0.07258184 0.11854023 0.14155135
0.09514005 -0.16217984 0.14689760
-0.06881615 -0.29488167 -0.03537807
-0.01752868 -0.19625211 0.14148946
-0.04479053 -0.29984546 0.13466765
-0.13363041 -0.23959127 0.12780744
-0.12028997 0.17948921 0.12055393
-0.18124884 -0.18680286 0.12618853
-0.01766735 0.17344269 0.15077619
0.13083954 -0.07527345 0.14755650
-0.12724212 0.20561603 0.14367880
0.12153138 0.31213942 -0.06361145
-0.17887585 0.13421795 0.11999705
0.04102557 -0.32034355 0.10753712
0.21845758 0.11616705 0.14601927
-0.08839764 0.09232432 0.13897689
0.00830140 0.16430713 0.12191410
0.07437505 -0.32660639 0.09140819
-0.12890382 0.29106903 0.05628747
-0.10013231 0.33311546 0.14845842
0.00508337 -0.26387414 0.14764230
-0.00676389 0.06027983 0.15204105
0.12450673 0.21280667 0.12776273
0.00874218 0.19451939 0.10432626
0.00256018 0.15939867 0.06666598
0.03336123 0.28637135 0.13080043
0.02382232 -0.22817999 0.13243628
0.16642642 0.31685394 0.14549676
-0.05693294 0.29750830 -0.01628555
0.16895963 0.27377188 0.14526510
0.00139569 0.05522718 0.14735535
-0.22043118 -0.05023477 0.14249228
-0.01585548 0.27624726 0.14787558
-0.22720380 -0.28600660 0.14134254
0.02587521 -0.00253775 0.15376920
0.08662705 0.42277318 0.12156268
0.12548579 0.30573946 0.04390369
0.00270284 0.29803509 0.14111964
-0.08861770 -0.05034798 0.12873939
0.17584804 0.36812177 0.12760422
-0.10959700 0.38984168 0.14653303
0.07737178 -0.31654590 -0.11226129
0.06549801 0.27673370 0.14255089
0.10633554 -0.23363051 0.14273700
-0.00770111 -0.19758220 0.14067039
-0.12168183 0.01897359 0.14096354
0.06062135 -0.09533107 0.14441416
-0.10063089 0.19991666 0.14302784
-0.00098642 -0.10357931 0.14632697
0.06935053 -0.29933524 0.14387193
-0.09807867 0.35972869 0.14565891
-0.14572626 -0.19847478 0.13932499
-0.14641201 -0.05427197 0.14792344
-0.08486307 0.00386048 0.14539470
0.13331032 -0.31891969 0.15107943
-0.11711163 0.19446813 0.14782485
-0.20693114 0.28735426 0.14486888
-0.16252865 0.26808584 0.11317007
-0.18234926 0.28697187 0.13914792
0.02523793 -0.37494683 0.14046954
0.11972661 -0.16545603 0.13682725
-0.00522670 0.13120899 0.14707521
0.16418564 0.17756328 0.13461697
-0.16554207 0.07792905 0.14367625
-0.08816153 0.24907553 0.13848275
-0.02438720 0.41302782 0.14112213
-0.16996254 0.33788058 0.12930013
0.16118494 0.08646464 0.12541272
0.13005376 -0.34623531 0.10687096
-0.03626198 0.14438748 0.14503694
0.05547243 -0.15301731 0.14628868
0.07479373 -0.40488333 0.14410456
0.09557667 0.35125187 0.14530492
-0.03193589 -0.10783913 0.14516050
0.04542415 0.33492556 0.11156573
0.04939477 0.09356022 0.14442164
-0.02519626 0.11920117 0.13990326
0.18468602 0.09977688 0.13121346
0.11540575 -0.28711060 -0.04126000
-0.01401039 -0.02863148 0.12994790
-0.13006370 0.25098890 0.12261067
-0.08521473 -0.37485272 0.14962417
0.14027113 -0.26705876 0.13047670
-0.05391560 0.11727111 0.07640839
0.19622812 -0.03278197 0.14768791
-0.11829609 -0.32048556 0.10965671
0.02549028 0.11442064 0.13910948
-0.10437853 -0.16275141 0.14100333
-0.00831250 0.10515461 0.13390267
-0.13263887 0.33564144 -0.10046422
0.07733063 0.35264614 0.14382815
0.01575036 -0.20887250 0.15113550
-0.15860784 0.30447650 0.12976603
0.18410316 0.22381686 0.14650798
-0.04812777 0.18182114 0.14931561
-0.14408942 0.32927462 0.03025817
0.02561169 0.25558165 0.14413644
0.11155611 -0.27959377 0.14813907
-0.16017276 0.25510988 0.14935683
-0.00537354 -0.30454227 0.13503726
0.13289215 0.31849074 -0.11524878
0.00500767 0.35911009 0.12034510
-0.19085550 -0.17787339 0.12695375
0.11944918 0.00316942 0.14050436
0.10254294 0.38181910 0.14908965
0.12042265 0.31789139 0.10252258
-0.14714344 0.33250648 0.10241966
-0.00122660 -0.30553532 0.03874521
0.14476126 -0.15671872 0.13339049
-0.14031638 0.04401200 0.11049223
0.13052799 -0.33387876 0.04126579
-0.06322578 0.07051016 0.14621796
0.16594198 -0.29449439 0.14583609
-0.10929418 -0.25765920 0.15074602
0.16187271 -0.05895942 0.15310103
0.19844562 0.02831998 0.14533766
0.09720235 0.12459293 0.15029936
-0.16984645 0.02265613 0.11037357
-0.00725481 0.14321721 0.14924745
0.08602290 -0.08675818 0.13684270
0.08320650 -0.06548731 0.13157415
-0.13107866 0.01470645 0.14744024
-0.07692528 -0.07612888 0.14955238
0.13017265 -0.35533509 0.14118987
0.01427618 0.38521853 0.12295101
0.08687123 0.37335169 0.13011198
0.04686355 0.25478494 -0.03705975
-0.08066027 -0.31582496 0.07428305
0.09948925 0.27990526 0.13318625
0.16631743 0.18778476 0.14294033
-0.12841372 -0.31432864 0.14204901
-0.16158456 0.21023078 0.11939095
0.01741531 0.10940522 0.13625464
-0.17396329 -0.33465266 -0.09595187
0.11680508 -0.05204070 0.14325626
0.12412376 -0.15247649 0.12387371
-0.17297691 -0.38216352 0.14268661
0.05171177 0.40876317 0.12953600
0.13692923 0.23653907 0.09806722
-0.15636720 0.31092751 0.14518008
0.11931276 0.07358280 0.13713592
0.00098594 -0.12480445 0.14716426
-0.03801145 -0.07895708 0.14487790
-0.03364016 0.17736074 0.12089819
0.02801943 0.15984577 0.02080661
0.13177559 0.32546920 0.05358254
0.17794850 0.00004601 0.13200089
0.04501081 0.30508095 0.14212812
-0.12789929 -0.33111343 0.05923234
0.10599633 0.15057430 0.13257533
0.14936373 -0.22886549 0.13178641
-0.01116285 -0.41424260 0.13376677
0.01782700 0.36221084 0.13492052
0.03192227 0.10279101 0.13161507
-0.00554962 -0.06836694 0.14462970
0.00810758 0.33260447 0.14113630
0.16260746 0.04502589 0.13749002
-0.16384321 0.33353651 0.14726493
-0.10621557 0.32676506 -0.06345049
-0.04100877 -0.21069659 0.14385840
-0.18698430 0.06980015 0.12467262
-0.01217744 0.30011907 0.13105242
-0.03086061 0.33822754 -0.13192974
0.05418767 0.16426300 0.03606887
0.10203183 -0.21447125 0.14155486
-0.13517611 -0.18787868 0.14163585
0.05120256 0.06764512 0.14584726
0.02449807 -0.27563551 0.13699859
0.02554721 -0.14135098 0.13810773
-0.13170171 0.29081172 0.14863956
0.02637090 0.00242590 0.14516410
0.17780563 0.25414231 0.12708138
0.06908989 0.28241268 0.14608872
-0.18605208 -0.21143685 0.11970731
-0.14722268 0.22132227 0.14677867
0.11734046 -0.37319496 0.11901812
0.12129137 0.27699175 0.10982509
-0.12094827 -0.10193813 0.14957854
-0.02114864 -0.15876076 0.05207440
0.11155415 0.21874985 0.14260827
-0.21600118 0.26890129 0.13401270
0.07918484 -0.19243023 0.13945623
-0.22689448 0.10426217 0.14297996
-0.16676871 0.38402769 0.14982712
0.07208887 0.15346412 0.12950255
0.00433255 0.02270045 0.13579044
-0.12911744 -0.04630495 0.14914322
0.01280470 -0.10256501 0.05817502
0.06390628 -0.04615679 0.14563298
0.05950833 0.23241833 0.13835515
0.03426715 -0.23271243 0.14761269
-0.19619116 0.01781625 0.12358569
0.08351428 -0.12274742 0.14232776
0.13285002 0.18581718 0.14752592
0.01205184 -0.19416767 0.14214613
0.01161961 -0.32896528 0.14346910
-0.00577983 0.30631590 0.10373361
0.07023525 0.31211901 -0.12352320
-0.17426971 -0.20123385 0.14746894
-0.15001318 0.11915910 0.11679404
0.09788398 -0.40166053 0.11369960
0.07707549 -0.23462319 0.13856861
-0.16007738 -0.04831893 0.13410886
0.06876019 -0.16852298 0.15062204
0.14474776 -0.31222665 0.14748922
-0.06089123 -0.06027616 0.14123566
-0.04363313 -0.21480644 0.15026283
-0.02429377 0.13077235 0.14210767
-0.03213548 0.02889125 0.14306504
0.01451240 -0.02465824 0.15387347
-0.16333774 -0.29546821 0.10518117
0.17975782 0.15823963 0.14066210
0.10006741 -0.19359781 0.12926146
0.04848435 -0.28047323 0.10202729
0.08416483 -0.01385764 0.14273399
-0.10927410 0.01869988 0.13947305
-0.18713757 -0.22480786 0.15952706
-0.12293591 -0.22361356 0.13236675
0.02912654 0.34021369 0.14636062
0.06463269 0.01048075 0.13981390
-0.17324263 -0.13138691 0.14145429
-0.13734855 -0.05208943 0.14077264
-0.21192995 0.39460084 0.12576137
0.10268348 0.07146141 0.13432083
-0.13137373 -0.30860299 0.14722650
-0.04091684 0.34976092 0.13850197
0.16497666 -0.30071357 0.14242628
-0.10361318 -0.07765575 0.14969581
0.00574368 0.23913187 0.14021850
-0.08475918 0.03498212 0.14502674
-0.13987739 -0.34214929 0.11507963
-0.03780310 -0.11351510 0.14871295
0.17969058 0.15552245 0.11493780
0.07023694 -0.13850953 0.12886402
-0.05870746 -0.19865415 0.13480046
-0.10874773 0.29973918 -0.04716779
-0.04213928 -0.01120606 0.14411175
0.03384598 0.17204666 0.13474146
0.05446758 0.31138206 0.13996334
-0.00324887 -0.24848503 0.14870420
0.01344895 0.07430995 0.11678815
-0.19781157 0.09490666 0.13730788
0.13236657 0.16406229 0.14502254
-0.04177674 -0.03056897 0.13469033
-0.17691660 -0.29300246 0.11914336
0.06430613 0.29817221 0.00240361
0.07879391 0.41667226 0.14078490
0.12558015 -0.15352492 0.13457279
-0.08791755 0.03295806 0.14016271
0.06316687 0.19898906 0.12918423
-0.17638905 0.15163815 0.13660955
0.07613333 -0.22909087 0.14299121
-0.14933163 0.28435749 0.14146462
-0.06217242 -0.18709558 0.14515150
0.05559147 0.29973030 0.13521430
-0.11474813 0.12225436 0.13881059
0.16116992 -0.21721420 0.14242275
-0.11611298 -0.31513524 -0.05927560
0.07195862 -0.06466722 0.14066166
0.17245486 0.25631887 0.12835196
0.00454233 -0.22795729 0.14599623
-0.01070681 -0.22334635 0.05696457
0.14056873 0.15521437 0.14060564
-0.03641307 -0.19864732 0.13730881
-0.08329403 -0.26923370 0.11412081
-0.11908990 0.32107872 0.07763436
0.06612386 -0.36502618 0.09906252
0.12117708 0.34247571 0.10686826
0.10112958 0.18466981 0.11305234
0.00032213 0.00470106 0.13858745
0.09827751 0.07014624 0.13540903
-0.00721214 0.11786125 0.01980440
-0.01005681 -0.00083014 0.13937926
-0.06768753 -0.07108697 0.12137882
-0.05637178 -0.33929819 0.11354706
0.12634417 0.32265055 0.14907874
-0.07474650 0.31745195 0.10601965
0.15618734 0.07234787 0.13005292
0.09202677 0.32091141 -0.02191442
-0.01096276 -0.03385070 0.16180246
0.17852099 0.29922202 0.16458470
-0.11833413 0.15038642 0.14910527
0.09874008 0.04981172 0.13690296
-0.16950440 0.13141242 0.15309834
0.13340873 -0.04407583 0.13810714
0.02316227 0.42740810 0.13564797
-0.08054131 0.04958532 0.14532894
0.15648353 0.31507179 -0.14194858
0.17929220 -0.02324382 0.14269039
0.02535151 0.12859417 0.12576495
-0.04549136 -0.06690869 0.14461462
0.04804675 -0.26526868 0.14659952
0.16241668 0.23689672 0.14652041
-0.07604718 0.30435294 0.15128790
0.11057921 -0.29583353 0.14777036
0.09033868 0.05253952 0.13882942
0.12739909 -0.38642094 0.14134723
0.06594515 -0.20995040 0.12556314
-0.17994732 0.15449065 0.12728278
-0.05183674 0.37559089 0.14231063
0.02752032 -0.35933405 -0.00873084
0.02884641 -0.25186980 0.14407934
0.00753151 -0.41602427 0.13547607
0.10252333 -0.30408728 0.09981208
-0.11938234 -0.33061355 -0.06948326
0.15659247 -0.26652765 0.14253770
0.14091954 0.36484370 -0.13355868
0.10449836 -0.32988280 -0.11200809
-0.16176388 0.21028650 0.12447675
-0.00334476 -0.40962446 0.14088330
0.18496695 -0.00556699 0.14141576
0.17287768 0.16712889 0.15040292
0.01832215 0.24285707 0.11393537
-0.03768621 -0.21134922 0.14583457
-0.10543443 -0.18063408 0.13977067
0.21571155 -0.17847073 0.13271014
0.03287425 0.35047978 0.15438630
-0.01265047 -0.28293145 0.14334682
-0.06917191 -0.40135685 0.15404291
0.13463366 -0.04255445 0.12866648
0.07294879 -0.17001319 0.14246237
-0.04354296 0.08582296 0.14614548
-0.17821324 -0.34858108 0.14870748
0.17509243 -0.35706508 0.11821684
-0.16274557 -0.23849294 0.14309946
-0.01742934 0.22350854 0.01936460
-0.05126219 0.28585121 0.14998096
-0.03432924 -0.22120222 0.07625806
-0.05167449 -0.30884290 0.02474319
0.03154022 0.09557036 0.12079945
-0.20154475 0.07399536 0.13986388
0.12015678 -0.04193089 0.11269684
-0.12236052 0.32324344 0.14707139
-0.04050499 -0.27086625 0.14224637
0.10511658 0.23727331 0.12864453
0.17097960 0.19023925 0.15281749
-0.20091051 -0.12355509 0.14192328
0.10325149 0.15190135 0.11698346
0.05885586 -0.28456947 0.15282370
0.06042858 -0.21598172 0.13094680
-0.04981481 0.11540240 0.13758148
-0.02404883 0.15936367 0.13058224
-0.15967005 -0.27519405 0.14487579
-0.13333061 0.31163284 0.11900581
0.02438146 -0.05760975 0.13750654
-0.05693851 -0.04368555 0.14107576
-0.20102637 -0.04060183 0.12403019
-0.18396714 0.02205702 0.13355453
0.14214262 0.36648536 0.10757133
-0.00343252 -0.17014727 0.13894014
0.14236425 0.27437159 0.13875192
0.10039818 0.25792217 0.15475039
0.03348890 -0.06232436 0.11172345
-0.14324553 0.32536912 -0.02038352
-0.02708361 -0.24303788 0.03367606
-0.12968494 0.21984008 0.13729030
-0.05949433 0.25592661 0.14506456
0.12370858 -0.02621888 0.14787197
0.18732516 -0.27817571 0.12229217
0.15273961 0.16305137 0.13545841
-0.06383758 0.00737373 0.14756274
-0.15481336 0.38698155 0.14444457
-0.13754155 -0.19226800 0.14099805
0.17640415 -0.00279130 0.13946547
-0.15560433 0.22890154 0.13762847
0.16453485 0.03813659 0.11081250
0.04300800 -0.00623035 0.13038602
-0.16846505 0.04746998 0.12637860
-0.12525243 -0.03950832 0.15400796
0.16369864 -0.27177307 0.12735811
-0.10452834 -0.30042240 0.12171088
-0.11314812 0.28679782 0.14259125
0.14931288 0.07309415 0.14449023
-0.15430540 -0.25895974 0.14397416
-0.11460866 0.36826214 0.14660871
-0.10748717 0.24626341 0.15357926
-0.10899416 -0.15495332 0.14683494
-0.21159226 0.34094423 0.12926333
0.12113419 0.16925323 0.13672417
0.03472587 -0.13503742 0.05183946
-0.02313475 0.02280873 0.14084986
0.15668665 -0.22963579 0.15168139
0.12946264 0.20919651 0.12756582
-0.19376653 0.13003598 0.13001810
0.17799789 0.08534604 0.14203641
0.14132857 0.20508447 0.14130890
-0.00283002 0.40027693 0.14570241
-0.11189025 0.08747135 0.13943157
0.13578469 -0.16196012 0.10682907
-0.14747739 -0.33133313 0.14824614
-0.21950914 -0.18400007 0.12758282
-0.16312040 0.32552046 0.14595999
0.01924248 -0.39549831 0.13199282
0.03223149 0.33824837 0.14591876
-0.18135910 -0.29418606 0.14336115
-0.01339420 -0.02655892 0.13836519
-0.20302136 -0.27646467 0.13912049
-0.16355637 0.30545640 -0.09809336
-0.12661046 -0.08899930 0.11991288
-0.04060889 -0.16596231 0.13953702
-0.12155513 0.32506111 -0.10770002
-0.11370070 0.27465755 0.12204931
0.08143316 0.08654743 0.13868135
0.09622984 0.31746194 0.02631724
0.18483478 0.28445092 0.12739210
0.04326144 0.03379016 0.15211999
-0.20797580 -0.04490731 0.13788697
0.07361444 0.30617914 0.08374134
0.06783976 -0.00664436 0.13214888
-0.10963387 0.14090876 0.14298511
-0.09587596 0.35679793 0.12590159
-0.09239045 -0.08963443 0.13905416
-0.13634808 -0.12987198 0.14388044
-0.09457640 -0.30128691 -0.13201731
-0.05167268 -0.31258550 -0.07167998
0.04800162 0.11581016 0.13015348
-0.15993507 -0.25155228 0.14344093
-0.09180108 0.39086193 0.13325265
-0.04899008 0.28242254 -0.06057677
0.12506324 0.34789205 0.12671693
0.08894752 -0.14696753 0.14062527
0.04415540 0.26743057 0.12827159
-0.06746246 0.11227660 0.12686433
0.10643060 -0.31511471 -0.06925492
0.08887009 -0.35842195 0.08422799
0.19028464 0.21101695 0.14289045
-0.03137274 -0.13511184 0.12014912
-0.10216589 -0.32033512 -0.00337232
0.06597143 -0.33671620 -0.07824852
0.02136202 -0.40535459 0.11413297
0.01010159 0.11381826 0.12218876
-0.15598969 -0.25680336 0.14303616
-0.02664072 -0.17085713 0.13867232
-0.00690491 0.39728644 0.14686775
-0.14698517 0.07168837 0.13963853
0.12613241 0.08220074 0.12010450
-0.13338028 -0.24064468 0.12715782
-0.20481685 0.21691786 0.14654034
0.07275143 -0.07110111 0.11687869
0.06229289 -0.25535673 0.14127988
0.18194795 -0.17900185 0.12939599
0.01324528 -0.04808129 0.14294651
-0.14885899 -0.04711888 0.14576328
0.05168506 0.31180716 0.13417836
0.17524692 -0.30530724 0.14235897
-0.10654458 -0.40370220 0.14484909
0.02723958 -0.04857193 0.12804751
0.02554537 -0.32455391 0.14156280
0.20609818 0.18467224 0.12514299
-0.16410044 0.13015071 0.13447064
0.21998793 0.10938666 0.13979821
-0.07945286 0.31358072 0.13042262
-0.13258559 -0.28516370 0.14449562
0.12909922 -0.24594100 0.12830827
0.09979681 0.05539904 0.13203143
0.14387241 -0.23265004 0.14057922
0.05967519 0.28246555 0.13969620
0.04503310 0.23943456 0.13776255
-0.12905930 0.15631843 0.14877769
-0.09051158 -0.11945364 0.14257839
0.17107737 -0.16052192 0.14297032
0.16142747 0.14309865 0.16768086
-0.09362071 0.14534214 0.13861483
0.17286661 -0.01981778 0.13029660
-0.14055853 0.31094560 0.14212853
0.08721857 -0.01985284 0.14546658
0.08580182 -0.00793104 0.14104927
0.05822115 -0.12201026 0.14577402
-0.01786556 -0.26181224 -0.01061252
0.03035701 -0.11464962 0.14591898
-0.21845445 0.30957183 0.13913631
0.11029081 -0.32592422 0.01446996
0.06039402 0.05966028 0.14234184
-0.04654227 0.30067855 0.14144234
0.06677266 -0.05118760 0.13529107
0.02535380 0.06114027 0.14115676
0.12418917 0.09810560 0.14272292
-0.00772577 0.13628265 0.13250059
0.00040092 -0.28157479 0.14659458
-0.14943032 -0.32074887 0.13779365
-0.04657470 -0.21958861 0.13487232
-0.01115099 -0.02815304 0.14074704
0.16839764 0.04063810 0.14285518
-0.04580453 0.36418346 0.13519225
0.03886278 -0.17673132 0.14392796
-0.05882886 0.10279496 0.14347002
-0.05081458 -0.06977558 0.13463008
-0.20684807 -0.09873220 0.14240895
-0.06424624 0.33044899 -0.05322265
-0.08122147 0.10641973 0.12358516
0.09161144 -0.34459615 0.14764872
-0.16790779 -0.03133176 0.13625336
-0.12190726 -0.25384423 0.14622207
-0.12698509 -0.11701724 0.12974171
-0.06716962 -0.13376974 0.14930980
0.12362736 -0.11563278 0.13489564
0.15496206 0.33145180 0.12842023
0.13178968 -0.28003058 0.14142732
0.12625101 -0.17814893 0.14911200
-0.08392270 -0.34949893 0.12512395
0.04139725 0.24255148 0.14622545
-0.10267200 0.30966774 0.02666046
-0.15891066 0.28602791 0.13939717
0.10447434 -0.22669300 0.13511816
-0.05492024 -0.11165313 0.14463085
0.21651138 -0.10155463 0.13721652
0.08662548 -0.35472047 0.14352180
-0.05526029 0.17886825 0.12844989
-0.16147247 0.40635121 0.13274620
-0.10344092 0.18023109 0.14919734
0.10260527 -0.27348316 0.11623876
-0.14574617 -0.42388305 0.14377639
0.11839084 -0.24931017 0.13804135
-0.06210166 -0.27978101 0.14193025
-0.17253278 0.14431591 0.12442993
-0.15558812 0.35066348 0.12356342
0.13090238 0.19197449 0.12847066
-0.11086415 -0.10425676 0.14225119
-0.16102737 0.01303491 0.14469165
0.09350397 -0.07917212 0.14246453
-0.04413436 0.32686833 -0.00110857
-0.02867063 -0.16384092 0.14919099
-0.01080037 0.02464682 0.14390650
0.05008832 0.05116163 0.15361075
-0.01712486 -0.31399804 0.13528962
-0.07171678 0.14036880 0.13776213
-0.21490405 0.18897367 0.14597981
0.14257310 0.13876194 0.14964393
0.03601052 -0.03699695 0.14313197
0.01159419 0.06162117 0.13455178
-0.03094447 -0.13461983 0.14313154
0.19249636 -0.11871955 0.14963487
-0.05850755 0.13953385 0.14650133
-0.04859826 -0.18849629 0.04256158
0.18753639 -0.14681631 0.13447745
0.23056313 -0.14534552 0.15677118
-0.01203701 0.23334303 0.15184228
0.20815308 0.13734937 0.12413874
-0.11270197 0.33317238 0.15106577
0.10951705 -0.11992545 0.11410339
-0.08674216 -0.28114116 0.11719677
-0.17427894 -0.08620169 0.13958357
-0.18514682 -0.35843173 0.13058579
0.14053345 -0.36444202 0.13357295
0.12903422 0.12813158 0.14063220
-0.12250006 -0.29468963 0.14656691
0.09318164 -0.31592846 -0.03760307
-0.05169202 -0.02294237 0.14077051
-0.12941906 0.03756273 0.13791853
0.03184809 0.04471371 0.14257599
0.15712292 -0.22088575 0.11852279
-0.07413834 -0.39556974 0.14754297
0.07051748 -0.21759546 0.14343779
0.03907621 -0.38999516 0.14346573
-0.12230758 0.33005518 0.13439141
-0.10333943 0.22032961 0.13775949
0.13480437 -0.19291167 0.14419127
-0.00866409 -0.01969344 0.14940549
0.05034888 0.35100070 0.14392696
0.12060279 0.30567074 0.14812997
-0.13648298 0.42497468 0.13451673
0.00521842 -0.40761301 0.13279501
-0.12973031 0.32062232 -0.12537760
-0.12380839 -0.40792373 0.13199602
-0.17836848 -0.14227016 0.13671950
-0.07751083 -0.25607219 0.14049900
0.11774468 -0.03267064 0.14315885
0.17051002 -0.08469295 0.14185773
-0.07463634 0.04638102 0.14010558
-0.15442665 -0.25417235 0.14182906
0.05539921 0.02347027 0.14058147
-0.07791945 -0.18164280 0.14665155
-0.22721016 0.03121760 0.14474893
-0.11618801 0.41091567 0.11423990
-0.05866079 -0.09673278 0.03364777
0.02453168 0.12839890 0.14461289
0.20104615 -0.25332952 0.15344876
-0.13945100 -0.19414178 0.14414182
0.03140358 -0.34545106 0.14884922
0.16288748 0.33157519 0.14621548
