1370
-0.08530844 0.33813193 0.13806069
0.14650197 0.01344926 0.14371419
-0.16792597 -0.11929347 0.13966917
0.04706980 0.34466323 0.12858945
-0.07759026 0.29359439 0.14470771
0.11066911 0.34556106 0.13322121
0.18800482 0.23782033 0.13539650
0.21757050 0.29831797 0.14021385
-0.07425832 -0.16219442 0.13516293
0.11115048 -0.22505449 -0.14167055
-0.16856806 -0.16827276 0.13835676
0.11503655 -0.19412722 0.05436643
-0.21792763 0.21227406 0.13834541
-0.05593482 -0.27184713 0.14026690
0.10821282 0.01910664 0.13643895
-0.05363001 0.22997554 0.13224666
-0.10750891 0.28770858 0.14264871
0.05368967 -0.30083674 0.15208602
-0.17843114 -0.19129473 0.15993519
0.05420960 0.02940862 0.13762186
-0.03211917 0.30258721 0.14866176
0.06871752 0.14333701 0.04838930
0.12889737 -0.33212447 0.13590409
0.14903043 -0.16560543 -0.11216054
0.12054486 -0.18648463 0.13513628
-0.05356278 0.37638909 0.12915054
-0.12330422 0.12588729 0.14550890
0.10030100 -0.32476315 0.13340813
0.07320286 -0.14872971 0.03850335
-0.05055049 0.11296309 0.13192737
-0.09464267 0.01660799 0.12605353
0.10430133 0.09509633 0.14475861
-0.19049779 0.03894439 0.13540876
0.00649049 0.19487543 0.12938043
0.12789905 -0.16647339 0.14088026
0.08765979 -0.05771803 0.14246522
0.09799453 -0.22977811 0.11230884
-0.10284542 0.17252405 -0.02713727
-0.03552315 -0.31186384 0.14098500
0.00096442 0.13558510 0.14163373
-0.06961221 -0.06492622 0.14090574
-0.08643897 0.19213961 0.14621253
0.06933034 0.14182609 0.13681197
0.14416867 0.14386721 0.13261652
0.09047083 0.04064947 0.12780437
0.01890087 -0.19911757 0.10082918
-0.12767805 -0.11350590 0.11901322
-0.04202906 -0.30370313 0.13666341
-0.05798068 -0.13608387 0.00014705
0.19914106 -0.04406935 0.13305351
0.19460543 0.13906734 0.11788573
0.05234906 -0.40286574 0.14206398
-0.04365351 0.14981417 0.00640313
-0.10019449 0.35834140 0.13063723
0.17947891 0.33952263 0.14130257
0.20791909 -0.21818092 0.14200383
-0.06264025 -0.08201651 0.14209686
0.07060574 -0.13380952 0.01945899
-0.06376722 0.11031193 0.10428273
0.16241366 -0.16524251 0.13932095
0.07340155 -0.10776813 0.13796581
0.04593893 0.16046157 -0.08166845
-0.03972358 0.09498384 0.14283505
0.18898101 0.16195235 0.12958747
0.08265469 0.20462506 -0.09512542
-0.01474475 0.19269976 0.13053727
-0.05864204 0.30498168 0.14108069
0.12295654 0.31002939 0.13677657
0.04267494 0.15171224 0.03631630
-0.06231795 0.35231674 0.13046299
0.23958090 -0.20722368 0.13267377
-0.11680117 -0.08508910 0.12715854
-0.15410358 0.28638998 0.14383526
0.05752666 0.31167278 0.13253403
0.07571466 -0.04165478 0.11778624
-0.01731118 0.01041454 0.10840233
-0.05229525 0.18977691 0.11053649
0.03307872 -0.15073490 0.14643739
-0.16064340 -0.01887727 0.14627711
0.05545880 -0.20065352 0.12539801
-0.12019561 0.28815567 0.12422962
0.00077839 -0.33119947 0.13881074
-0.04314724 0.04791619 0.13878031
-0.20381510 0.16397545 0.13874437
0.07322223 -0.11954163 0.14211680
-0.10110173 0.14178339 0.13846296
-0.02353325 0.30905062 0.11482612
0.13116249 -0.11355899 0.13577767
0.08574112 -0.21801250 0.14903794
0.10235944 -0.11453342 0.14361703
0.19425148 0.24229211 0.13675025
-0.02090770 0.30075136 0.13608119
0.22099936 0.15589863 0.14495762
-0.07572149 0.26414540 0.14296502
0.07943606 -0.19202709 0.13876297
-0.17078242 -0.07364693 0.14365250
0.07649183 -0.16875765 0.12903492
-0.12998185 0.01695475 0.13493116
-0.00340591 0.15810737 0.00948157
0.17380276 0.19645503 -0.12741795
-0.06388956 0.27363446 0.13864176
-0.14634059 0.19952403 0.13800496
0.02815642 -0.28719574 0.13607132
-0.06333244 0.19914369 0.14920844
-0.08992779 -0.30051565 0.13813189
0.10223848 0.23119822 0.14067529
-0.12637624 0.07323189 0.14269204
-0.07402699 -0.10219293 0.12757315
0.09979840 -0.40113103 0.13061839
-0.05144377 -0.17087278 0.04633151
-0.14938091 0.12808339 0.14053647
-0.07384181 -0.16477373 0.03172955
-0.09615263 -0.38108474 0.12544879
-0.11845427 0.10157967 0.13367265
-0.10547228 0.03703680 0.13276638
-0.00071854 -0.15714377 0.13781671
0.02118990 0.09311415 0.13931738
0.02592169 0.08721097 0.12815332
0.19989595 0.28260875 0.11758257
0.07821825 0.01904604 0.13665080
-0.03386109 -0.13437144 0.13322678
0.10246524 -0.15039176 0.09376425
0.05777673 -0.14267889 0.13281502
0.07417145 0.18296100 0.11910879
-0.09737164 -0.16912130 -0.00088858
0.15433827 0.14485914 0.14381923
-0.00901238 -0.02636126 0.13205299
0.07028171 0.26166195 0.13219568
0.07169539 0.11716177 0.12042074
-0.01176404 -0.37624526 0.12651120
-0.00856383 0.19046731 0.14140861
-0.04206554 0.31135285 0.14250071
-0.06978431 -0.22515824 0.14424011
0.05412290 0.05781654 0.14505485
0.17383653 -0.22031790 0.11781389
-0.15419014 0.18415824 0.13698849
-0.16964793 -0.04209346 0.14091195
-0.11994727 0.04113359 0.15496048
0.03211280 -0.17663214 -0.09094252
0.06585854 0.24331853 0.14352424
0.01847041 -0.26138225 0.13263050
-0.04396956 -0.35872877 0.12251236
-0.06531633 0.31317741 0.14590229
-0.03124540 -0.33622736 0.13561355
-0.00213350 0.01128931 0.15665630
-0.08135043 0.05158543 0.14330912
0.22573079 -0.04880985 0.13541690
0.02386462 0.27924526 0.11431244
0.06803738 0.17413443 -0.05016504
-0.12824476 0.16988002 0.13349542
-0.10225819 0.19598585 -0.12262432
0.21723211 -0.12861140 0.12647347
-0.02894046 0.31665573 0.14889903
-0.01108555 0.13604313 0.13405313
-0.00041205 -0.04374607 0.14096320
-0.07850316 0.02257202 0.13879979
0.11970407 -0.17703685 -0.02459476
-0.11699703 0.29766965 0.13294441
0.16972226 -0.17075023 0.14256820
-0.10302508 -0.11501226 0.13953668
0.00077091 -0.08671682 0.06351258
0.19494185 -0.15798661 0.14316884
-0.03143150 -0.18883300 0.05806727
-0.04418368 -0.15473525 0.12437665
-0.09002591 -0.05856104 0.14312625
-0.01760142 -0.17229393 0.14381678
0.19308096 -0.15655215 0.11709785
0.11349189 0.19113374 -0.06500271
-0.03587285 -0.23754391 0.13823576
0.12951934 -0.24366193 0.13115336
-0.01881517 0.10005403 0.14340399
0.13133645 -0.19039612 0.12753211
-0.23744792 0.14929445 0.14034390
-0.23845741 0.18269970 0.13280909
0.15027669 0.36325631 0.11762927
0.20682530 -0.04590449 0.14304158
-0.11497533 -0.27795646 0.12824136
0.12173559 -0.03294437 0.12816459
0.10762919 0.16035751 0.12920037
-0.17655495 -0.29879749 0.12274612
-0.00697324 -0.14225456 0.09968546
0.00475059 -0.20497315 0.14756952
-0.09242672 -0.13855535 0.12677038
-0.12917869 0.30552167 0.13446628
0.04740736 0.11017480 0.14237565
-0.25943178 -0.07993057 0.13774280
0.12297764 0.17703632 0.13308322
0.11373848 -0.16840169 0.00510067
-0.13206902 -0.03361844 0.14187969
0.08204305 0.02634417 0.14506400
0.19469954 -0.18360801 0.14145932
0.06146348 0.03165975 0.15909603
-0.02845477 0.21788649 0.11474425
-0.11770895 0.24477971 0.12193913
0.20957385 0.39340737 0.13279721
0.13865831 -0.18536434 0.13933234
0.04506389 0.25479886 0.13809898
0.15047717 -0.35490376 0.14344202
-0.11033039 0.03112372 0.11087701
0.01710042 -0.19430633 0.13245040
-0.12056251 -0.04336589 0.14352556
0.15590690 -0.03177105 0.14320174
-0.06842564 0.19200084 0.14248505
0.18350072 0.15902200 0.14595608
0.10884699 0.00342636 0.14854740
-0.08022672 -0.20712702 0.12564507
0.11246678 -0.34517834 0.12911046
-0.08838531 0.13127252 0.04523056
0.04003377 0.08256570 0.12022227
-0.25683603 0.04587780 0.14249386
-0.01071103 0.00476084 0.14096546
-0.23365989 0.14802676 0.13587898
-0.10274684 0.10289059 0.15207958
-0.08773585 0.16696352 -0.02629812
0.02229271 -0.33081380 0.12584543
-0.08415639 -0.15615594 0.14547083
0.06847098 0.35455137 0.14202407
0.10267176 -0.04759784 0.13092190
-0.10552989 -0.17501849 0.14163199
-0.14032087 0.05146571 0.14157453
-0.04636053 0.17114919 0.08891267
-0.05425379 0.11752015 0.14312917
-0.00946949 -0.13075583 0.13115281
0.12836631 -0.17165430 0.14005187
-0.14504677 -0.30666792 0.12989683
-0.08765406 -0.24195871 0.10921220
0.14415206 -0.18996026 0.14266498
-0.17828670 0.05160100 0.13214941
0.14939725 -0.27275923 0.14312427
-0.00379966 0.13391474 0.14475045
0.17345336 -0.21020243 0.12550904
0.08101416 -0.15348510 0.03498043
0.02757185 -0.05943393 0.14500822
0.01832883 -0.29159266 0.13667402
-0.04568920 0.09040265 0.04558931
-0.02472256 0.18729638 0.14426316
0.11098089 -0.26906192 0.13221331
-0.05192287 0.18139103 0.14215651
0.03123120 -0.14690337 0.00199556
-0.21275860 0.23518297 0.12930700
-0.20802175 0.25526997 0.12723628
-0.10585271 -0.08191103 0.14821091
-0.07948673 -0.22989368 0.14194781
0.16906860 0.14117596 0.15292118
-0.15527648 0.30794752 0.12889430
0.00409882 0.14166370 0.14970729
0.16983849 -0.20071408 0.13749996
-0.13932647 -0.00721304 0.14028893
0.20102850 0.28029916 0.14470699
-0.13126609 -0.19155173 0.13907145
-0.08294518 -0.37082648 0.12380692
-0.20029971 -0.15649311 0.12433878
0.06314328 0.08397838 0.14472386
-0.12500736 -0.15981622 0.14283754
-0.19918334 0.02499829 0.14047506
0.12410949 0.19407709 0.15400164
0.24510776 0.22311680 0.12156403
0.23524591 -0.26692286 0.14739799
0.06167605 0.04469288 0.04976181
0.02802461 0.18888807 -0.11456749
-0.02427468 -0.12723505 0.14320803
-0.06184541 -0.16718130 0.08666742
0.16762559 -0.03050863 0.14637418
-0.01903006 0.16823365 0.11111370
-0.04199655 0.38968283 0.13768966
-0.04859082 -0.14503461 0.11285949
0.10339087 0.24514048 0.13968626
0.08117048 -0.26544353 0.13823959
-0.07875710 -0.06680581 0.12915406
-0.15164785 -0.12497584 0.14426184
0.15388057 0.03499742 0.14879584
-0.08896951 -0.22673218 0.13633667
-0.03756150 0.12525938 0.14314181
-0.07930568 -0.16918257 0.12684795
-0.12621483 0.01429092 0.14075178
0.20241879 0.12737601 0.13304634
0.05115250 -0.08195945 0.07984153
-0.13265406 -0.24729194 0.13389349
0.19218314 0.14806323 0.13998654
-0.17111669 0.19097115 0.12257804
-0.13203511 -0.17942967 0.14104313
0.09583381 0.16404980 0.09631284
-0.08048390 0.19407892 -0.09768369
0.11943388 -0.09938335 0.13536128
0.18704167 -0.15739080 0.13513759
0.06225003 -0.02054812 0.14556538
0.17504442 0.00538024 0.13244908
0.15260123 -0.10710928 0.12984408
0.14177269 0.02547473 0.12017418
-0.08568243 -0.18063602 0.13832945
-0.10997997 -0.04821086 0.13837348
0.06988335 0.06300932 0.13789493
-0.15103246 0.11330259 0.14525396
-0.13670519 -0.12611774 0.13898093
0.11010538 0.02885995 0.15005615
-0.24790764 -0.20470813 0.12646794
0.19093622 0.30143481 0.11227050
0.00083739 0.34975520 0.13971554
0.14509971 0.29770374 0.13520272
-0.02734923 -0.18251784 -0.12238977
0.06853968 0.06047820 0.13206619
-0.18189184 -0.11810757 0.13252360
0.12078805 0.26572776 0.12266156
0.11915251 -0.06206228 0.14226769
0.03446862 -0.14293905 0.11740838
-0.15949456 0.12875994 0.13421705
0.11998171 -0.27465203 0.14250551
-0.06807484 0.19802082 0.13092035
0.04030842 -0.13453086 0.03129450
0.07037374 -0.30955812 0.14337052
0.00428552 -0.20454264 -0.07438579
-0.02809863 0.14404225 0.13527022
0.00611192 -0.34388924 0.13883862
0.07612120 -0.10248043 0.13068727
0.17466697 0.29989538 0.13937882
-0.08962679 0.30941087 0.13707036
0.16037825 -0.20861959 0.13380198
0.06366426 0.15602839 0.13389264
-0.09656142 -0.35621381 0.13292038
0.06813389 0.23932673 0.13794526
-0.10446312 0.24922614 0.13865444
0.13723689 -0.17322180 0.13568312
0.09675296 0.27229720 0.14069834
0.05455160 0.04335551 0.14620593
-0.16853905 -0.09932579 0.14557898
-0.11542831 -0.20563672 0.07733221
-0.23729584 0.04568997 0.13245818
-0.03797774 0.13098067 0.14337277
0.17009932 0.07175069 0.13107601
-0.08965746 0.37056670 0.13672698
-0.18363154 -0.08068065 0.14285067
0.11540216 0.21050598 0.13375470
0.19245628 0.22936267 0.14111462
-0.14203575 0.31165144 0.13886288
0.13834961 -0.25033772 0.12656486
-0.12888892 -0.13665155 0.14099045
-0.10848190 -0.08676556 0.12375134
0.11043457 0.13948323 0.11722283
0.00172117 0.08346403 0.13481425
0.01720289 0.10738267 0.13606429
-0.02508149 0.11468252 0.06191428
0.13072088 -0.21645042 0.14405744
-0.05051333 -0.20064496 0.13765152
0.10248747 -0.34345037 0.13902542
-0.02942943 -0.07136703 0.09853615
0.19901668 0.30984825 0.10284093
-0.04244561 -0.06109692 0.14006582
0.10674796 -0.23810932 0.13422924
-0.06813847 0.40049326 0.13073908
0.10848054 0.27012706 0.14224812
0.19910485 -0.28237855 0.12275756
0.02645463 0.27623400 0.14561817
0.13828832 0.19855380 -0.09306156
-0.04679036 0.18864772 0.10241980
-0.05024497 0.08374017 0.13300037
-0.10436457 -0.08327603 0.14168313
0.12680970 0.16096635 0.08874903
0.17261040 0.37153402 0.14837953
0.05615252 -0.16271403 0.09442700
-0.14386493 0.29220170 0.11850868
-0.11653396 -0.22027048 -0.12895419
-0.09384745 0.38487107 0.13588046
0.11987315 -0.01546869 0.14214802
0.03840575 0.39003605 0.14739709
0.06523278 -0.13801904 0.14282796
0.16491038 -0.09003041 0.13248044
0.11902874 -0.16876072 -0.13160379
0.11981045 -0.14928448 -0.11712787
-0.01516945 -0.30845845 0.13053697
0.11606095 -0.23686591 0.14079243
-0.03651074 -0.01262377 0.13236231
-0.16888958 0.13251010 0.13946281
0.10745581 0.03014148 0.14236322
-0.08629479 -0.29347017 0.11254199
-0.08972602 -0.24358118 0.15479875
0.16121346 -0.01506470 0.14390053
0.06859891 -0.13186127 0.10762382
0.10234275 0.33686379 0.12850031
0.05887814 0.19919826 0.13983455
0.17621079 0.31360584 0.12681797
-0.01526455 0.35887894 0.14167589
-0.02563135 0.21324179 0.12770429
-0.06825180 -0.33785817 0.13611910
0.02845459 -0.17089351 0.14564455
-0.01203417 0.13816723 0.14010733
0.18390785 0.25362244 0.12245537
-0.09273046 -0.14827102 0.14001817
-0.24668866 -0.17231031 0.11526500
-0.07524319 -0.10489030 0.13211769
-0.22607711 0.11265843 0.14475806
0.03072627 -0.10749111 0.05888771
0.05916408 0.02067401 0.14244854
-0.12489071 -0.01350661 0.14140388
0.20510191 0.27319565 0.13220014
-0.14661446 -0.10945305 0.14194509
0.07299429 0.18841785 -0.04377913
-0.07063854 -0.29690316 0.12466342
0.11227916 0.33650643 0.13942172
0.10950962 -0.05391795 0.13673301
0.08053833 0.05042048 0.14720877
-0.00321031 -0.04710577 0.13355491
-0.07833907 -0.05648804 0.13242063
-0.07765251 0.06035528 0.14056131
0.14061855 -0.12943533 0.12444675
-0.08748776 -0.16817600 0.13302365
-0.07566887 -0.15806718 0.12008286
-0.05452560 0.09175413 0.13781461
-0.06420217 0.04690900 0.15459983
0.15315250 0.31712496 0.11861012
-0.17457747 -0.13370748 0.14035499
0.13863891 0.24915043 0.14353789
-0.22782034 0.05611561 0.12339178
-0.00479854 0.34532908 0.12901166
0.05320128 -0.25985438 0.13292578
0.14002076 -0.21132992 0.14684118
0.05806870 0.02887084 0.13962735
0.06786630 -0.28342614 0.14702268
-0.09932943 -0.18938874 0.04765825
0.13332239 0.36764866 0.14721742
-0.15423265 -0.16293871 0.14697550
0.23200434 -0.22894530 0.13644436
-0.00493317 0.37112713 0.13582692
-0.06081296 0.11920370 0.14699341
-0.14473146 0.07201466 0.14742944
-0.05533159 -0.21516904 -0.07424964
-0.08918676 0.26949891 0.13671407
0.06512516 0.19438109 0.07618125
0.10857123 -0.16581422 0.13609979
0.09550243 -0.13300070 0.14658059
-0.09069490 0.19502711 0.13973102
-0.10319079 0.11571027 0.13884023
-0.00128716 -0.18358685 0.13889879
-0.07770339 0.10883027 0.05901994
-0.13266253 0.23014081 0.11068777
-0.05031626 0.14081052 0.11333394
-0.06737766 0.15881543 0.12514739
-0.03413668 -0.24181657 0.14397952
0.26548040 0.04553971 0.14244273
0.04985528 0.23294321 0.12440009
0.00806030 -0.22469546 0.13466482
-0.07738915 -0.22617695 -0.12876047
0.12095072 -0.17303681 0.13484737
-0.11628869 0.34280786 0.12547043
-0.13245994 0.28175229 0.13887972
-0.04655090 -0.37006643 0.14621635
0.17836359 0.01222100 0.14006616
0.14387798 0.11471994 0.13608578
-0.11757900 -0.20749453 0.14068057
0.09338756 0.06300807 0.14219244
0.17501777 0.19280034 0.13440381
0.07330807 -0.06371179 0.13519795
0.11147657 -0.39793876 0.13218457
-0.15737219 0.11421798 0.13983542
-0.13699625 -0.27765989 0.14771831
-0.22062816 -0.02979220 0.14323102
0.19669861 0.13253644 0.13902721
-0.00335042 -0.03209200 0.13203099
-0.09333098 0.01125700 0.07655051
-0.05441754 0.24178424 0.13953269
-0.06358011 -0.19199947 0.02532797
0.10178733 -0.07551269 0.10503013
0.03002056 -0.20335637 0.13478768
-0.13919896 0.20589881 0.13995275
0.00048268 -0.26516181 0.12434494
-0.00156678 0.04766491 0.08934037
-0.07167555 0.14764142 0.14270157
0.10619263 0.05000469 0.11951157
0.15325698 -0.28663921 0.13385502
0.14365906 -0.04292756 0.13473059
0.06640713 -0.14152387 0.13124762
0.06506545 -0.10529203 0.13441306
0.17035118 0.30010632 0.14137177
0.19703877 -0.08971557 0.13377911
0.18049142 -0.14505801 0.14203924
-0.11574685 -0.12570150 0.10677603
-0.05281023 -0.09971878 0.13104683
-0.05498517 0.35301542 0.13375869
-0.11577508 0.06660253 0.13782355
0.06541098 0.07790889 0.10625318
0.01717766 -0.20555729 0.12790284
0.04618814 0.21630421 0.15153280
0.10762897 -0.14165179 0.13161148
0.13879919 0.19828939 0.13513941
-0.10992084 0.34619343 0.13401474
0.18284942 0.10319638 0.14259769
0.15237305 0.11578354 0.13488118
-0.05645545 0.21620914 0.12974171
0.05051285 0.04232774 0.14263161
-0.06406461 -0.15584992 0.14756048
0.06204320 -0.35538667 0.12500079
0.04035772 0.40003783 0.12173735
0.03537093 0.05763058 -0.00048123
-0.09944230 0.17082691 0.14090158
0.09042625 -0.19121341 0.14000380
0.15438835 -0.22152229 -0.13314867
0.05317064 -0.33806103 0.12125234
-0.14222318 -0.31670126 0.13193496
0.12617995 0.11311667 0.13588917
-0.09196981 0.28802454 0.14147656
0.03239444 -0.11711545 0.14183882
0.06797364 -0.00473021 0.14074296
-0.00627021 -0.09152353 0.14272845
-0.00556708 0.37051785 0.15184268
0.08676139 -0.14698121 0.12357920
-0.16252486 0.19885579 0.11453593
-0.09344128 -0.29792428 0.13490912
0.10199358 -0.23218639 0.14214379
0.14771026 0.04138798 0.13897841
0.10692553 -0.18065107 -0.10645032
-0.09919742 0.28218761 0.14048140
0.13375452 0.13810065 0.14037599
-0.17021441 0.26075044 0.10397871
-0.17885400 -0.10519025 0.13548893
0.02375330 -0.18275960 -0.07346895
-0.21741500 0.19746006 0.14686960
-0.09521739 -0.33548021 0.10498954
0.08730679 0.25699502 0.13144809
-0.04761872 -0.22756472 0.12609634
0.16205204 0.17767635 0.13366884
0.19989073 -0.12084990 0.12186655
-0.24742635 0.13929428 0.11412439
0.02866626 0.11960535 0.10074458
0.00818623 -0.33627188 0.11256175
-0.09926652 0.11358168 -0.07624175
-0.09328700 -0.05776993 0.13419944
0.02651128 -0.05741304 0.14164922
0.11475536 -0.35795832 0.12613063
0.04720329 -0.13637272 -0.01657513
0.23305622 0.12920138 0.13401183
-0.08644977 -0.11631992 0.14026715
0.15505964 0.34479028 0.14899378
0.02466944 0.31866157 0.13831665
-0.00947680 -0.19678843 0.10997233
-0.10910071 -0.23270226 0.13686401
0.04603516 0.33859137 0.13824417
0.08757700 0.20199545 0.11106685
0.03519552 0.23991878 0.11864038
-0.10716115 -0.09060760 0.10940934
-0.01394736 0.02842607 0.14211926
-0.04747017 -0.10049613 0.14431328
-0.01024264 -0.16923690 0.14094156
0.19199488 -0.21591413 0.12286450
0.22612095 0.00478165 0.12906110
-0.07131438 0.16823955 0.07871750
0.08316248 -0.11675534 0.13664541
-0.01883741 -0.28797168 0.14377812
0.04744905 0.34038457 0.13758326
0.20582999 0.17876951 0.14137763
-0.03416900 0.19030532 0.14926744
0.10902736 -0.00229270 0.14315438
0.14828473 -0.01551984 0.12946159
-0.04469902 -0.05110191 0.12668328
-0.11672574 0.05404979 0.12528037
0.03489651 0.32415795 0.14045492
-0.06057014 0.07812566 0.13691798
-0.03804904 0.36814976 0.11786795
0.14672077 0.20812723 0.14017510
-0.02015966 -0.22742108 0.14320426
-0.10914692 0.07653305 0.14959012
0.09091750 -0.40285179 0.13935043
-0.10286955 -0.16326988 0.13279489
-0.01125038 0.25455582 0.14437455
-0.04767971 -0.33685032 0.13121554
0.09471419 -0.36647239 0.14127219
-0.06119707 -0.24804772 0.14648367
0.13307947 0.23597904 0.14570633
0.11377456 0.05792169 0.11894326
0.08955159 -0.16539471 0.13990429
-0.12064783 -0.19586608 0.14725786
0.13207321 0.16740309 0.12013331
0.10159262 0.18114808 -0.09373981
-0.21180764 0.07395130 0.14172724
0.17248221 0.11474087 0.13181995
0.03475405 0.29238331 0.11372279
-0.12623182 -0.28130817 0.13827805
-0.11477269 -0.19234926 0.09196447
-0.16234617 -0.30028892 0.13963808
0.10690785 -0.04937089 0.14059839
0.19280653 0.08627175 0.11681257
0.23238412 0.14171642 0.13106868
0.05606893 0.03652591 0.14099814
-0.13591824 -0.03943733 0.13691708
0.06118512 0.28331754 0.15315937
0.03762855 -0.28784859 0.13727692
0.10248522 -0.19658986 0.10636596
0.00939132 0.28408077 0.15350246
-0.00517936 -0.09814166 0.14565955
-0.07689489 0.15679127 0.12659444
-0.19229999 0.19584939 0.13759056
-0.01905732 0.00108019 0.11664103
-0.18350169 -0.08906545 0.15115578
-0.05655717 -0.22383121 0.13892692
-0.02634459 -0.18536258 0.03568398
0.17378619 -0.22981223 0.13740355
0.00266580 -0.14385521 0.13174014
0.00952272 -0.13747032 0.13902853
0.14105316 0.30086035 0.13471152
-0.20338714 0.39805958 0.13383065
-0.17692250 -0.08603638 0.13182160
-0.05920732 0.30215633 0.13639492
-0.08035909 0.29341167 0.14684695
-0.01794736 -0.39955658 0.13981363
0.08323274 0.14796181 0.14479533
-0.15361056 0.28825271 0.14185846
0.14482407 -0.19313726 0.13468441
-0.25494429 -0.14774485 0.13542956
0.20889744 0.19722265 0.12945260
0.21763252 -0.09724092 0.13667917
-0.11256744 -0.22565976 0.11572669
-0.13933000 0.22198746 0.13975319
0.21814597 0.22405215 0.13081041
0.13998295 0.20207028 0.14160173
0.06898616 0.19999346 0.13612095
-0.01936179 -0.21003148 0.14517391
0.09705582 -0.24380709 0.13268308
0.10718905 0.11927018 0.13003995
0.15152557 0.28899229 0.13759166
0.26961958 -0.00067993 0.13425627
-0.18639123 -0.20954369 0.14037691
-0.04819704 -0.01739759 0.14268234
0.08402987 -0.08357443 0.13709287
0.03038913 0.03738137 0.14210439
-0.10659739 0.15851405 0.13756146
-0.10347776 -0.37543994 0.13456556
-0.14162603 0.32746947 0.14445758
0.16160603 -0.14040144 0.13561127
-0.11429635 0.19512531 0.14240867
-0.05000263 -0.14359331 0.13630241
-0.08507847 0.16903776 0.07997536
0.24222594 0.13181256 0.12707257
-0.03841095 -0.36798474 0.14148021
0.09824038 0.09367058 0.14175528
0.10522261 0.06029912 0.14384779
0.08396353 -0.25758895 0.13069879
0.08483669 0.30464774 0.13822734
0.16984318 -0.29678848 0.14487550
-0.20054835 0.24186033 0.14850476
-0.18679175 -0.05671846 0.12113483
0.05511864 0.11382511 0.10243534
-0.10794689 0.06878963 0.14215109
0.01016651 -0.29950276 0.14386788
0.21388605 0.09827872 0.12823892
0.05633799 0.33454609 0.12630430
0.04162540 -0.11272319 -0.04452290
0.04156373 0.26456398 0.13889427
0.14749324 -0.15430300 0.13393584
0.04316090 0.15522936 0.08962063
0.02668312 0.13270834 -0.00258483
-0.21985775 -0.31870851 0.14400131
-0.08925106 0.27347106 0.14595795
-0.05958015 -0.00165184 0.13648763
-0.14291392 0.22383116 0.14041618
0.10068056 0.23864490 -0.11240420
0.21857189 0.11897298 0.11719365
-0.03527488 0.18846014 0.13755843
-0.06444313 0.30309135 0.12683563
-0.00255591 -0.14970471 0.13979998
-0.09819679 -0.04098953 0.14115769
0.21960343 -0.18076940 0.14060678
0.06807978 -0.34531170 0.12181231
-0.07909568 -0.22097328 0.14325553
0.04026446 -0.36111665 0.10963215
0.13974680 -0.16263658 0.05954079
-0.13918409 0.22733229 -0.12098968
-0.04082078 0.00383522 0.12788691
0.20475233 0.21058178 0.13333143
-0.13226335 0.07226415 0.13246053
-0.11449573 -0.39916390 0.09822575
-0.19540454 -0.11173584 0.14455970
0.13822494 -0.19519903 0.10977129
0.00610224 -0.15634693 0.14148256
-0.12722963 -0.04640523 0.13764489
-0.00413912 -0.35019791 0.13671665
0.11065789 -0.00816222 0.13809603
-0.23383000 -0.20401955 0.12696923
-0.06456457 0.13990976 0.12168405
-0.16347729 0.24887347 0.13526988
-0.10951357 0.11486477 0.14410318
-0.05501986 0.27930802 0.13375297
-0.05953404 0.16665161 0.13367210
0.05465027 -0.38462666 0.14313924
0.06886218 -0.10216812 0.12768041
0.22902200 -0.16825078 0.12405811
0.08271056 0.27233604 0.12154724
0.04506202 0.22164199 0.12403477
-0.13114950 0.17614456 0.14212394
0.09242146 0.04546719 0.14170063
0.06853127 0.15284936 0.13843481
0.05189078 -0.04985786 0.14587259
-0.02107339 -0.13887803 0.01941626
0.02169234 -0.10631341 0.13602120
-0.07468063 -0.25309154 0.12878579
-0.16184953 -0.21040988 0.12792245
-0.13625458 0.17255133 0.12711771
-0.18975656 -0.17816198 0.12596075
0.01638024 0.08997933 0.14718054
0.16682661 -0.08586238 0.14156584
-0.16545822 0.18406852 0.13911533
0.08877730 0.16836458 -0.01515017
-0.19372195 0.07863668 0.11916333
0.06722363 -0.24340725 0.10396276
0.22374512 0.07394814 0.14350727
-0.11920846 0.12469569 0.13468546
0.03496446 0.14178765 0.11863193
0.03515658 -0.18689385 0.11085337
-0.07323700 0.13555384 0.09603764
-0.06932126 0.29962489 0.14387648
0.04492971 -0.21138535 0.14623305
0.01084743 0.01369222 0.14803258
0.16490138 0.14402972 0.12635313
0.07242347 0.10688439 0.11126029
0.03298378 0.12357771 0.05523648
-0.02695606 0.11688799 0.12911186
0.04117254 -0.18708310 0.12769639
0.18222234 0.28421178 0.14273456
-0.10159290 0.16858783 -0.04964023
0.14517620 0.28267145 0.14146200
0.01316438 -0.00214926 0.14722976
-0.23316234 -0.00137275 0.14002904
-0.05571444 0.25622207 0.14172922
-0.23209994 -0.19625565 0.14095697
0.02317355 0.02235550 0.15167764
0.12067724 0.40596265 0.12162085
0.09372197 0.19118589 -0.02347799
0.06506211 0.27955920 0.13734685
-0.08818284 -0.02452037 0.12666522
0.19488497 0.31415999 0.12245996
-0.09006211 0.37092727 0.14429682
0.07227130 -0.16272458 -0.04028718
0.05681508 0.20377946 0.14188844
0.10655165 -0.22663185 0.13933904
-0.00710983 -0.12685460 0.13893181
-0.14617333 -0.04864323 0.13873896
0.07404147 -0.08387519 0.14019543
-0.11294234 0.13922171 0.14135846
0.02111003 -0.11110486 0.14270836
0.08913206 -0.26550311 0.13921802
-0.05951997 0.33039224 0.15431437
-0.15490033 -0.20037675 0.13781203
-0.09683305 -0.04788637 0.14416055
-0.08841704 0.05608704 0.14148937
0.17775567 -0.27546936 0.14341956
-0.13752897 0.08334716 0.14263555
-0.22578537 0.24916911 0.14529943
-0.17061880 0.22066447 0.10894759
-0.17916441 0.24940076 0.13676117
0.05102980 -0.33924973 0.13716301
0.15537262 -0.12084606 0.13507639
0.00753972 0.10356313 0.14482541
0.14326355 0.04239238 0.13306528
-0.16540593 0.02731722 0.13857971
-0.03808904 0.27407679 0.13596092
-0.03060336 0.35164189 0.13704008
-0.19396061 0.28441945 0.13261716
0.22029060 0.04429089 0.11700876
0.12977639 -0.31664807 0.11027330
-0.00656470 0.18774162 0.14603972
0.03630987 -0.16528802 0.14207038
0.06998222 -0.37322962 0.14183986
0.11607905 0.32252702 0.14159060
-0.02601215 -0.09519074 0.14196095
0.05197619 0.21851785 0.09145170
0.08736053 0.11868396 0.14293210
-0.02585175 0.10885613 0.13662384
0.22624856 0.07285763 0.13150544
0.11382575 -0.12976339 -0.06702660
-0.03667087 -0.08639698 0.12946856
-0.12854087 0.14655939 0.11293887
-0.04067772 -0.34270054 0.14391266
0.14849859 -0.27192280 0.13208440
-0.05835914 0.09620221 0.06294405
0.20314364 -0.10903363 0.14181459
-0.08492309 -0.15191886 0.09267463
-0.01771364 0.15796700 0.13845876
-0.14452246 -0.15079907 0.13682541
-0.03500508 0.13980621 0.13194145
-0.15212262 0.16666560 -0.12694186
0.05817673 0.34706652 0.13703504
-0.02337215 -0.21959935 0.14657292
-0.14895529 0.16929051 0.10459553
0.22353533 0.17800644 0.14814195
-0.04194956 0.16031250 0.14599364
-0.09735939 0.19088084 0.06537066
0.05973740 0.23423338 0.13858348
0.12241325 -0.15591320 0.14277536
-0.15964721 0.20869735 0.14486161
-0.00743366 -0.28110904 0.12946317
0.10760480 0.17729580 -0.06213190
0.04135076 0.32201701 0.12007559
-0.20484185 -0.08534047 0.12587255
0.09492707 0.02058625 0.13678659
0.10402554 0.38581002 0.14796485
0.10225816 0.16929424 0.11016225
-0.09157538 0.19728930 0.11889321
0.05262727 -0.18303955 0.00446088
0.16225635 -0.06915040 0.13058242
-0.15413123 0.02794426 0.11884929
0.12553063 -0.20721659 0.08907986
-0.06861174 0.03965978 0.14289746
0.18988135 -0.22772691 0.14237063
-0.11016878 -0.21671164 0.14985438
0.17326799 -0.08252086 0.15398869
0.22900192 0.00260368 0.14161374
0.10455684 0.11727844 0.15023728
-0.16594660 0.01805202 0.11164936
-0.02530789 0.12564613 0.14624822
0.12699722 -0.12901008 0.13348050
0.10278145 -0.00719621 0.13260168
-0.17027301 0.04526189 0.14116846
-0.06104138 -0.09948094 0.13870862
0.13749647 -0.34562761 0.14051728
0.02515698 0.36034080 0.12481754
0.09911352 0.32407093 0.13144676
0.09658088 0.14784208 -0.07607446
-0.03905071 -0.17759366 0.08316517
0.06061055 0.15919054 0.09898810
0.15768082 0.19699788 0.13772205
-0.13634951 -0.28341383 0.13654648
-0.15744182 0.22810051 0.12519409
0.05288467 0.06917422 0.13529453
-0.15649033 -0.20845801 -0.11500852
0.12808776 -0.06641117 0.13945422
0.15548444 -0.15150645 0.12087367
-0.17651357 -0.34676203 0.13744071
0.05167272 0.39856160 0.12961373
0.13947439 0.25392094 0.10888226
-0.13978560 0.27941027 0.14135394
0.12853280 0.13245286 0.13825747
0.00950741 -0.09837350 0.14266588
-0.03538551 -0.06543609 0.14004855
-0.01116884 0.05801458 0.13420202
0.02388396 0.15615362 -0.00159002
0.11672620 0.19446598 0.09201309
0.20248716 0.04456918 0.13843162
0.10128648 0.23831010 0.13995899
-0.06466614 -0.19307610 0.11228883
0.08580682 0.21041957 0.12873098
0.15764451 -0.18067549 0.13277042
0.02105616 -0.41236103 0.13108109
0.03805747 0.31115949 0.13446674
0.04509632 0.11541945 0.12599219
0.00318713 -0.09776323 0.14089742
-0.00850395 0.32222542 0.13378553
0.19894283 -0.02770313 0.13408154
-0.16804799 0.30942273 0.14491206
-0.06482455 0.16677259 -0.02066050
-0.03345465 -0.18337601 0.14034104
-0.18092096 0.11854163 0.12256102
-0.03021502 0.25248235 0.13126417
-0.00368711 0.24430469 -0.13926788
0.07037254 0.11690557 0.03228939
0.11979544 -0.21732375 0.13550361
-0.11946213 -0.16306549 0.13851859
0.07224914 0.06157227 0.13777027
0.02658283 -0.24174054 0.13203809
0.07367923 0.01394016 0.13352785
-0.14726242 0.22256365 0.14634290
0.07737667 -0.05525569 0.14095683
0.21957724 0.22699142 0.12667912
0.03408255 0.24412376 0.14328447
-0.18525641 -0.20586963 0.12404598
-0.15014191 0.12307621 0.14606464
0.13663748 -0.32574785 0.11674163
0.12936808 0.23779809 0.11550966
-0.09264103 -0.08526684 0.14332250
0.00950225 -0.08768241 0.05544857
0.12884712 0.11199395 0.13865371
-0.24453649 0.21522616 0.13945477
0.10634133 -0.14199032 0.13453263
-0.27205616 0.08914021 0.13447092
-0.14985658 0.37188351 0.14415351
0.10328735 0.21762694 0.12921944
-0.03460585 -0.03840491 0.13303000
-0.15498993 -0.04028251 0.14525434
-0.00923362 -0.07964180 0.03291224
0.04764612 -0.01662644 0.13971291
0.11779884 0.21613789 0.13418855
0.04825432 -0.27040955 0.14542300
-0.22208478 0.04425634 0.12897834
0.08635351 -0.10334177 0.13622576
0.12141652 0.11480685 0.12901911
-0.02089527 -0.17183703 0.13567784
0.03634537 -0.33769926 0.14165059
0.02194996 0.26982984 0.10703734
0.07773629 0.18994062 -0.13185170
-0.16700271 -0.12884764 0.14235973
-0.14580026 0.07159573 0.11729307
0.11589736 -0.36999837 0.11147177
0.14367461 -0.21817991 0.13626105
-0.13746011 -0.04384428 0.12889694
0.05438717 -0.15383726 0.14691746
0.17580055 -0.31166893 0.14574647
-0.07695897 -0.06123247 0.13729246
-0.01592920 -0.12398294 0.14592424
0.03671467 0.11176200 0.13622840
0.00382487 0.01379469 0.14104795
0.04156461 -0.00404635 0.08147943
-0.14250076 -0.26725623 0.10271992
0.22216494 0.12287530 0.13777351
0.12472713 -0.10447879 0.12556344
0.07838359 -0.25404418 0.10146093
0.07087852 0.03619552 0.14275980
-0.05587132 0.01599539 0.13672186
-0.19448051 -0.14567663 0.15968589
-0.06626946 -0.18455100 0.13035321
0.05645294 0.32907102 0.14067858
0.10501462 0.04128322 0.13665047
-0.15348867 -0.13097917 0.13432750
-0.13148649 -0.05608874 0.13454607
-0.22847214 0.34773111 0.12531166
0.14925167 0.07019816 0.13531300
-0.11451988 -0.26668823 0.14248981
-0.01470278 0.34442365 0.13717286
0.16144866 -0.27395985 0.14259787
-0.04520750 -0.04018027 0.14438599
0.01661503 0.18744425 0.13689148
-0.10122232 0.04009314 0.13753271
-0.12096430 -0.22602381 0.12539373
-0.01991182 -0.09582342 0.14325032
0.18890055 0.13139394 0.11856849
0.13153109 -0.08431661 0.12942003
-0.03275292 -0.17872435 0.13041569
-0.11575437 0.16988428 -0.08721174
-0.01747986 -0.11753018 0.13553150
0.02681720 0.18757586 0.13584353
0.01357431 0.29625520 0.14297828
0.03190339 -0.23443140 0.14254153
0.02949301 0.04403364 0.12100190
-0.20702097 0.10647034 0.13976385
0.12739927 0.13879041 0.13916168
0.00473418 -0.02637844 0.13243780
-0.16166894 -0.28228730 0.12071667
0.05025198 0.17179577 -0.01405695
0.09114083 0.40035307 0.14563811
0.14150785 -0.14613788 0.13167539
-0.10754080 -0.01811145 0.14009625
0.09600793 0.16336921 0.13335301
-0.17791875 0.12524378 0.13860394
0.09263887 -0.14201023 0.13929881
-0.18983349 0.22395106 0.13712546
-0.06308119 -0.19574627 0.14373052
0.07715227 0.29007721 0.13450447
-0.08108686 0.13914022 0.13467234
0.17958459 -0.19058999 0.13925289
-0.10223570 -0.14899537 -0.08896432
0.07136955 -0.12038369 0.13584004
0.17464736 0.22814178 0.12885717
-0.01121675 -0.20964895 0.14055653
-0.01856850 -0.18499991 0.04620411
0.18691598 0.05291246 0.14218694
0.04080074 -0.17206439 0.13339278
-0.02947815 -0.11362091 0.11198364
-0.07125595 0.18598036 0.11037488
0.01660994 -0.31361324 0.10028192
0.11798451 0.33650571 0.10669167
0.12328245 0.20415038 0.11178619
0.03783717 -0.01152595 0.13787909
0.09983956 0.06443691 0.13436222
0.01494399 0.10600038 -0.00009161
-0.03788873 -0.02625463 0.13519105
-0.01367168 -0.07139819 0.11998039
-0.06922114 -0.21885097 0.10794343
0.13838935 0.25248998 0.14763394
-0.00927032 0.18157488 0.11558633
0.16725358 0.09662244 0.12660792
0.07441558 0.18956378 0.04571007
-0.00129395 -0.03411296 0.15591347
0.16954015 0.22857836 0.14629596
-0.12759972 0.07306298 0.15058735
0.11854927 0.11456069 0.13262472
-0.19242989 0.16349763 0.14746834
0.10031873 0.03129068 0.13613063
0.03660190 0.41161114 0.13271643
-0.10340446 0.01440352 0.13907185
0.14286463 0.19618134 -0.14352942
0.23205222 -0.00456444 0.13550895
-0.02273070 0.12604374 0.12761900
-0.07752207 -0.04652936 0.14350459
0.06630345 -0.17980815 0.14158517
0.15818776 0.21112463 0.14288282
-0.08192316 0.22753669 0.14713509
0.11134528 -0.26525342 0.14257345
0.13974263 0.02194850 0.13843289
0.14767113 -0.34368724 0.13682836
0.10879926 -0.16715565 0.12596525
-0.21363872 0.16593723 0.13173130
-0.05189532 0.35258812 0.13719164
0.04985876 -0.23499393 -0.05284461
0.06307964 -0.24967003 0.14016043
0.00997322 -0.40660647 0.13112494
0.08471031 -0.15397304 0.11042596
-0.09588967 -0.18668906 -0.01991763
0.15311521 -0.24255118 0.14191604
0.13065839 0.25615644 -0.13051844
0.06432857 -0.17316896 -0.05249523
-0.14307298 0.18044540 0.11652105
-0.02481402 -0.37339371 0.13792174
0.22214617 -0.00313898 0.13782434
0.21281809 0.16209924 0.14911523
0.04064266 0.11693005 0.13457260
-0.00061335 -0.07941255 0.14631745
-0.10554869 -0.12634167 0.13697886
0.23888475 -0.14284256 0.13346526
0.08975078 0.29164070 0.15405050
-0.03623050 -0.20581347 0.13713376
-0.03889661 -0.36938605 0.15324888
0.11799237 -0.02432744 0.12103322
0.09967774 -0.16183190 0.13752061
-0.05766176 0.14360613 0.14222464
-0.15779480 -0.31094426 0.14991948
0.20378709 -0.30014396 0.12068558
-0.17280492 -0.20390348 0.13966876
-0.05557016 0.13231573 -0.00588813
-0.07737339 0.22187726 0.14490460
-0.07788624 -0.15852043 0.10146223
-0.09516624 -0.15344873 -0.01391293
0.00778810 0.01059855 0.12037961
-0.18552662 0.01024532 0.13584894
0.11889020 -0.05858468 0.12100000
-0.09101482 0.17386997 0.14599687
-0.02914283 -0.26667675 0.13405049
0.04866652 0.12740330 0.12434754
0.19618472 0.18227796 0.14984074
-0.21757238 -0.09622894 0.14420608
0.12831098 0.14764039 0.11713773
0.06395196 -0.30060086 0.14919376
0.02933458 -0.24085051 0.12851173
-0.04273892 0.11465368 0.13538790
-0.02181577 0.14652012 0.13041975
-0.17050466 -0.20630655 0.13936226
-0.08156295 0.15363303 0.13361436
0.05072186 -0.00715787 0.13681471
-0.07959681 -0.04642588 0.13589090
-0.23645073 -0.02183022 0.13621363
-0.19372195 0.00908147 0.12913845
0.16994697 0.34955284 0.12063023
-0.02148909 -0.14579664 0.13724193
0.14060515 0.30447587 0.13812777
0.10052724 0.24647856 0.14957878
0.07703175 -0.07105128 0.11335900
-0.12040448 0.18824498 -0.07266618
-0.04869394 -0.16714276 0.00545551
-0.12695026 0.21665025 0.13466883
-0.06706807 0.24533251 0.14312641
0.13442796 -0.05727812 0.14420134
0.22321206 -0.21902972 0.12486349
0.16947910 0.15416181 0.13300690
-0.08768418 0.06598674 0.14531989
-0.19435415 0.31151068 0.14453863
-0.08508336 -0.19125186 0.13910215
0.17448646 0.00414078 0.13718566
-0.11458503 0.23015608 0.13377088
0.20512632 0.07748251 0.11447724
0.07136883 -0.01076948 0.12770331
-0.19032709 0.03961096 0.12294687
-0.15702924 -0.03661635 0.15041347
0.14321969 -0.19636762 0.10933980
-0.14699985 -0.24998030 0.12821847
-0.11355688 0.27521685 0.14086817
0.15917054 0.07353633 0.14072196
-0.15012799 -0.26197883 0.13819939
-0.11652677 0.32952106 0.14211558
-0.11067298 0.18516137 0.14777908
-0.11535858 -0.18022853 0.14282037
-0.22885351 0.27042377 0.12803663
0.16079149 0.16120349 0.13476731
0.04843351 -0.08064635 0.06226164
-0.04953250 0.07354288 0.13984574
0.15663740 -0.20491385 0.15067126
0.14814098 0.20546554 0.12819420
-0.19829795 0.12008977 0.12908402
0.18312125 0.04468447 0.13339342
0.15649851 0.18967420 0.13755971
-0.00311458 0.39992422 0.14410202
-0.13537771 0.15475464 0.13594422
0.18862253 -0.12770566 0.11215971
-0.11880308 -0.25901422 0.14376472
-0.24598834 -0.10601790 0.12041255
-0.15509057 0.30183250 0.14004228
0.01051181 -0.35140792 0.12535040
0.03510356 0.31330013 0.14462647
-0.17279845 -0.22063604 0.12341873
-0.02228402 0.04492391 0.13504437
-0.20335782 -0.21837799 0.13614619
-0.14883739 0.17798582 -0.10701158
-0.07318413 -0.05341968 0.12093212
0.00957380 -0.15236300 0.13192691
-0.09728286 0.16951643 -0.05062075
-0.04276480 0.12083714 0.12901013
0.08604437 0.08234081 0.13334951
0.08679593 0.18278950 0.08583970
0.16174406 0.21578750 0.13040861
0.04929265 -0.02833877 0.14893225
-0.21930452 -0.02510569 0.14014511
0.06757271 0.15996058 0.11425935
0.12283944 0.07299165 0.13297975
-0.10728501 0.16072705 0.13879436
-0.08725226 0.33035877 0.12991703
-0.08715907 0.00809312 0.13642569
-0.14837447 -0.11840432 0.13900881
-0.05307841 -0.15169388 -0.06503004
-0.04435218 -0.18071176 -0.10516307
0.08035658 0.10027471 0.12966868
-0.15307759 -0.19519876 0.13783103
-0.08952160 0.39006174 0.12915410
-0.05429054 0.17793113 -0.09549639
0.12202452 0.34048590 0.12176423
0.07095432 -0.11204361 0.14169577
0.08934961 0.26024711 0.14600015
-0.03219660 0.13112763 0.12458723
0.08441640 -0.17203687 -0.02054702
0.09366266 -0.16237152 0.10938074
0.20418082 0.15070081 0.14199840
-0.07490981 -0.06769514 0.11392118
-0.09160370 -0.19505641 -0.03922099
0.06001759 -0.21407630 -0.00991468
0.05330335 -0.38144755 0.11632220
0.05816494 0.11376941 0.12048529
-0.16547503 -0.14323360 0.14422020
-0.01494106 -0.21206185 0.13774173
-0.00061326 0.39117125 0.14734548
-0.15466514 0.08040999 0.13713408
0.14051229 0.06220666 0.13060498
-0.11932379 -0.13657519 0.11510637
-0.23821573 0.14147794 0.14331703
0.10023687 -0.04874629 0.12349612
0.11136959 -0.18888742 0.13710302
0.18773122 -0.17826334 0.12235606
-0.00193930 -0.05108120 0.14088668
-0.16601931 0.03427478 0.14041716
0.06824315 0.32148758 0.13360667
0.17164080 -0.27885121 0.13784379
-0.11274831 -0.36916965 0.14487770
0.06110516 -0.04724607 0.11956704
0.03853387 -0.28841570 0.13720642
0.23045877 0.16613741 0.12478372
-0.18807633 0.11853495 0.13267203
0.25459588 0.10163092 0.14112449
-0.08395138 0.29026535 0.13128993
-0.06990986 -0.22031713 0.13846549
0.15787804 -0.14476754 0.12270299
0.11157157 0.01792646 0.12725541
0.14771342 -0.20406193 0.13835928
0.06518917 0.28288788 0.13710243
0.02840934 0.23745221 0.13373193
-0.14001741 0.14828272 0.14349155
-0.12243029 -0.11918777 0.13980138
0.17951971 -0.14892802 0.14048946
0.16531013 0.07947269 0.15796852
-0.10195617 0.05221494 0.13520485
0.19094026 0.04325843 0.13094378
-0.17496750 0.28127500 0.14063510
0.08708404 -0.03125752 0.14521345
0.09319200 -0.06845805 0.13709931
0.09407149 -0.03438604 0.14032066
-0.03285478 -0.20372742 -0.03328160
-0.03763920 -0.02794787 0.14485437
-0.24281351 0.23555413 0.13838910
0.11706883 -0.18299241 -0.04500595
0.11496000 0.05886798 0.13873853
-0.00920094 0.27404258 0.13478118
0.05262611 -0.02922078 0.13337018
0.05119766 0.11949356 0.13529983
0.15771234 0.02989998 0.14527132
0.04675659 0.22271523 0.12261176
0.03319376 -0.24443908 0.14151758
-0.14753528 -0.27159399 0.13548157
-0.09385756 -0.16015083 0.13569403
0.07930636 -0.00586968 0.13994466
0.19258812 0.05808210 0.14041027
-0.04973841 0.35657376 0.13244773
0.03416868 -0.14802979 0.14046946
-0.08895804 0.13470238 0.13978544
-0.09283634 -0.03974256 0.13662457
-0.20686315 -0.10976122 0.14673570
-0.06345502 0.15391740 -0.03324679
-0.07162350 0.07830054 0.12452289
0.07905899 -0.33164993 0.14497033
-0.13977304 -0.02319212 0.13106008
-0.10865246 -0.26815179 0.14198157
-0.09654649 -0.07940061 0.12513833
-0.04226228 -0.14035696 0.14665894
0.15514231 -0.09865602 0.13034056
0.19683523 0.29943717 0.12733085
0.13943629 -0.18219525 0.13745028
0.11235301 -0.09271636 0.11895420
-0.08289533 -0.31346795 0.12177186
0.08135509 0.18862695 0.14178760
-0.09842827 0.16508238 -0.02567716
-0.16359553 0.26310140 0.13987662
0.11536565 -0.23305738 0.13699293
0.00649360 -0.03417961 0.14399230
0.22306976 -0.11968983 0.13623486
0.09963603 -0.31731233 0.13986295
-0.01213878 0.20699020 0.12165409
-0.11082933 0.34479511 0.12578684
-0.12979090 0.15713927 0.14416277
0.11273018 -0.15559281 0.10493781
-0.06109864 -0.40639827 0.13908023
0.13788451 -0.20950234 0.13586809
-0.03421782 -0.23062338 0.13741590
-0.18203014 0.11426605 0.12601478
-0.11962182 0.34265235 0.11816607
0.13336632 0.12079453 0.12335584
-0.07382677 -0.07184925 0.14416580
-0.15560803 0.03520740 0.13943608
0.08979514 -0.09728341 0.13863996
-0.02022130 0.19312149 -0.04349265
-0.01596433 -0.10395383 0.14628358
-0.02211367 0.02453032 0.14181462
0.07452778 0.16049069 0.15002021
0.00392905 -0.27405238 0.13423343
-0.07187860 0.11390157 0.13253099
-0.24533635 0.17838383 0.14355156
0.17972359 0.17303507 0.14704087
0.06010057 -0.05025052 0.14035860
0.00629369 0.07534438 0.13254069
-0.02980266 -0.14808518 0.14499617
0.20632808 -0.16814381 0.14300600
-0.08069515 0.03596860 0.14263189
-0.05661389 -0.13903007 0.03063128
0.17146768 -0.11101168 0.13736282
0.26094973 -0.01080207 0.15361562
-0.02011633 0.20098504 0.14752778
0.23772122 0.14357533 0.13292344
-0.06617343 0.29718381 0.14572886
0.10222650 -0.09366679 0.11868480
-0.09192811 -0.11587380 0.10916512
-0.17520988 -0.01779917 0.13695133
-0.20661017 -0.27992275 0.13369504
0.16735618 -0.30999812 0.12876219
0.11595041 0.12658955 0.13546473
-0.14128585 -0.22012790 0.14125028
0.10557036 -0.16002394 -0.02348570
-0.02599796 0.00857574 0.13489696
-0.07260300 0.12660117 0.13382098
0.08140409 0.08123896 0.13816383
0.15201697 -0.28658557 0.11971261
-0.04785960 -0.36982259 0.14414653
0.09128470 -0.21706328 0.13914420
0.05174346 -0.31881273 0.14213271
-0.14416268 0.29456156 0.12958476
-0.04838672 0.21440023 0.13409512
0.15418729 -0.15633255 0.13893545
0.00028117 -0.02548049 0.14550760
0.06585678 0.34850317 0.14099503
0.15017515 0.25437909 0.14459968
-0.13497218 0.41132531 0.13551627
0.05925709 -0.38825506 0.12879878
-0.06126332 0.17259726 -0.08537771
-0.08758934 -0.37659746 0.13070396
-0.18502389 -0.10300204 0.12996209
-0.05396137 -0.22417328 0.13681981
0.12917081 -0.04645697 0.13865000
0.14833203 -0.05206388 0.14225754
-0.05634276 0.01017170 0.13624568
-0.12972143 -0.26662999 0.13660529
0.06923875 0.00489932 0.13720512
-0.07481256 -0.11619593 0.14354356
-0.23529753 0.07242111 0.14003587
-0.08928193 0.39347911 0.12359329
-0.02969125 -0.09944247 0.03803447
0.07185108 0.12447456 0.14042120
0.21772751 -0.16065335 0.15315700
-0.11467377 -0.12479240 0.14159574
0.05488998 -0.30746135 0.14198318
0.17863169 0.28895995 0.14205015
0.11310521 0.10346177 0.11777131
0.01945264 -0.20600712 0.14276910
-0.12039976 0.20270988 0.14039753
0.06146501 -0.35148519 0.14497134
0.07099492 0.19185531 0.12848960
0.11719018 -0.29594982 0.13479270
0.11728039 0.10853019 0.13857844
-0.08250982 -0.30915457 0.13719124
0.18731119 0.05221394 0.13984242
-0.11143955 0.08330974 0.13527417
0.12246050 -0.07032984 0.13480794
-0.06315100 -0.12004035 0.11814164
-0.03679673 -0.10195218 0.13769148
-0.21527994 0.12098639 0.15229361
0.04333611 0.10950238 0.14363407
0.16237304 -0.14945874 0.13948591
0.09405795 0.11252619 0.13941202
-0.10141073 0.08325279 0.13164330
0.04806313 -0.27465335 0.14280041
-0.07778382 -0.29921925 0.13040704
0.17491882 0.20968807 0.11133307
-0.08839592 0.07635225 0.14547302
-0.05144717 0.10026160 -0.01557569
0.10437579 -0.21963653 0.11825659
-0.14656685 0.00602364 0.13792369
0.10372178 -0.21894461 -0.08207060
-0.06328104 -0.17767118 -0.03381120
0.14515312 -0.07131431 0.14158997
-0.12088545 0.32044744 0.14869715
0.16880786 -0.26658371 0.13152429
-0.07213703 0.14327775 0.12104471
-0.08884400 0.05464347 0.15297881
0.11241733 -0.15110625 0.12936416
-0.19182457 -0.25744510 0.13361286
-0.21268919 0.25266191 0.12557767
0.02544022 -0.19401462 0.13604431
-0.12020032 0.35248673 0.14128214
0.03519373 -0.28805673 0.13804020
0.17030674 0.27861843 0.12397964
-0.05383218 0.24599698 0.13847049
-0.02700337 0.30660719 0.13554843
0.00858767 0.03623012 0.13361154
0.06613246 -0.29255369 0.14372653
-0.01178432 -0.26320824 0.12945113
0.01678464 -0.14982793 0.13186598
0.00183914 0.28643167 0.14452009
0.03915456 0.14403987 0.14302842
0.18604866 0.23068005 0.13419786
-0.00257774 -0.08480644 0.02169373
0.05626279 0.33792922 0.12741506
0.05506042 -0.15290572 0.13834766
-0.03790882 0.10364199 0.14362884
-0.05681065 0.15113729 -0.06701539
0.06552556 -0.16329873 0.12589961
0.04605681 0.29069912 0.14346932
-0.02027245 -0.12156697 0.01368029
-0.07803272 -0.15051715 -0.04619693
0.18719994 0.21063691 0.12247144
-0.14077125 -0.17245632 -0.05997353
-0.00627561 -0.29756829 0.13670884
0.10732351 -0.30382007 0.12278549
0.14355125 0.33820030 0.12195970
0.15366980 -0.25807273 0.12958060
-0.04918543 -0.06404300 0.12997386
-0.13707344 -0.28878427 0.12942262
-0.01964827 0.19698943 0.14194985
0.03677245 -0.36954099 0.13344213
0.03849391 -0.29314238 0.12960331
-0.08445406 0.34622461 0.13644935
0.10624399 0.01296379 0.13441208
-0.01830368 0.20391272 0.13199645
-0.12625234 0.13259704 0.14163136
0.13210653 0.05411995 0.13575000
0.07759634 0.10125744 0.13835533
0.07989617 -0.20457801 0.11214143
0.04440751 0.09955041 0.13106017
-0.18381149 -0.29472160 0.13372907
-0.09648153 -0.15109597 0.13934796
0.10240670 -0.19895077 0.01376278
-0.11242626 -0.13859555 0.14320292
-0.08975749 0.30482396 0.11408550
0.10374004 -0.19807327 -0.06828496
0.18398750 -0.19360082 0.12787618
-0.21701555 0.04666670 0.14070848
-0.13805187 -0.13654283 0.14134771
-0.07299200 -0.27435723 0.13497537
0.11845247 -0.23198350 0.13472775
0.00134946 0.21842381 0.12367449
0.02262241 0.12162327 0.14270540
0.11082087 -0.14833856 0.14417002
-0.04074404 0.01110090 0.14309558
0.03306312 -0.12671633 0.13980864
-0.02701765 -0.12877563 0.13434532
0.10101075 -0.19987962 0.15006483
0.11705190 0.15906338 0.04219706
-0.05626907 0.10900013 0.13031831
0.05732771 0.28263241 0.14053833
0.09568563 0.18947542 -0.06325422
-0.14343469 -0.16861708 0.12931924
0.00725173 0.01575216 0.09900947
-0.09850921 0.08300839 0.12194155
-0.20733635 0.30961490 0.12170947
0.12257811 0.38296756 0.13731225
