1362
0.08032674 0.28546593 0.19261093
0.30273885 0.29067057 0.18220079
-0.17555320 0.34379146 0.19680363
0.00735212 -0.31612360 0.17841937
-0.35991818 -0.24275258 0.08623502
0.29479820 -0.36000049 -0.08669513
-0.19757909 -0.13225205 0.17830552
-0.31835514 0.09200817 -0.08108546
0.34081182 0.13947463 -0.10256023
-0.30935732 0.34806174 0.18564238
-0.20880187 0.25938272 0.20690797
0.22311038 -0.36736277 0.19214335
-0.12405781 0.26650652 0.19761351
-0.16395181 -0.29815844 0.19483948
-0.02454759 0.04839128 0.18905057
-0.17898481 0.00124783 0.19412255
-0.20627570 -0.41020536 0.17808753
0.20637870 -0.36124256 0.16361161
-0.38150638 -0.25513190 -0.14503706
-0.37016767 0.31384718 0.18608035
-0.33448911 -0.13532400 -0.07735828
-0.04534246 -0.31082019 0.14549121
-0.24834371 0.18473580 0.18653688
-0.25023991 0.16889675 0.18431619
-0.14446603 -0.07945161 0.18875095
0.10820182 0.15994059 0.18723753
0.01765911 0.20476270 0.18555996
0.28785247 0.34520495 0.16633141
0.02979121 -0.21789974 0.18347859
-0.11021684 -0.15891892 0.19774143
0.36667728 -0.16052593 -0.05980643
0.06484178 -0.22904113 0.17551386
-0.03143054 0.09499566 0.15824965
-0.37478811 -0.30754036 -0.15594202
0.35663986 0.05420898 0.16753051
-0.00988954 -0.08519223 0.18068953
0.13695733 0.35343760 0.17670299
0.21101967 0.02240402 0.01769730
0.07998897 -0.37961009 0.12803569
-0.12760438 0.28856820 0.20371026
-0.13369165 0.31946898 0.19586524
-0.26118925 -0.23776430 0.19002445
-0.05676607 0.25737846 0.19769272
0.36796555 -0.18737942 0.14520156
-0.24233493 0.18218306 0.18258123
-0.32041800 -0.10984006 0.18439640
-0.11359128 0.10609804 0.20740652
0.20608580 -0.26854905 -0.05623148
0.21688919 0.27965960 0.20191452
0.09944496 -0.25487763 0.18256198
-0.28768113 -0.33512965 0.16518350
-0.20671900 0.28939822 0.19087784
0.19374979 -0.37399271 0.18376559
-0.23437083 -0.05656613 0.20030837
-0.11132681 0.07223558 0.19155087
0.15959176 -0.16082743 0.18360265
-0.06607007 0.26037914 0.17618588
0.31367096 0.30608827 -0.09230093
-0.32567284 0.25509310 0.18220191
-0.27362445 0.36705232 -0.16413422
0.34880009 -0.18928719 0.16232271
-0.19054088 0.31059885 0.19397080
0.15837647 0.27454272 0.18460533
-0.25948367 0.07499979 0.18866344
-0.20508784 -0.03988328 0.18866462
0.35531515 -0.34923482 -0.17599484
-0.17828982 0.32805964 0.17505530
0.24381772 -0.10461563 0.19160679
-0.22860393 -0.09740712 0.18708852
-0.10149673 -0.18097770 -0.07341617
0.20380065 -0.30608296 0.19214211
-0.27359793 -0.37973577 -0.20129456
-0.16196793 -0.06621488 0.15812282
-0.21643478 -0.03321937 0.19253206
-0.08124241 -0.22028838 0.19304276
0.33104157 -0.24897313 0.17292178
0.33632234 0.26366508 -0.09982668
-0.16012242 -0.16608444 0.19005674
0.31660724 -0.35534588 -0.00366627
-0.08676107 -0.00410756 0.17885344
-0.01956301 -0.11223292 0.17784907
-0.24693945 0.23194844 0.17257771
-0.29519352 0.14489698 0.18440010
-0.02946487 0.40038598 0.18042520
0.27379531 -0.11237486 0.18313660
-0.33828789 -0.16901161 0.17895019
0.27545595 -0.08314621 0.14883435
0.14925507 0.19657050 0.17121968
-0.32580349 -0.35927188 0.16301963
-0.06919447 -0.36214730 -0.05757710
-0.00448498 -0.35656154 0.19428021
-0.24528390 -0.28987676 0.16865024
-0.22756565 0.24146092 0.18089046
-0.02893224 -0.01517740 0.19131152
-0.33799857 -0.14352500 0.16043331
0.23517153 0.23588246 0.18338279
0.34201989 -0.29049861 -0.16567516
-0.18294729 -0.12195598 0.18951462
-0.15920807 0.16299847 0.19566789
0.30235499 -0.13595909 0.19057043
-0.12632243 -0.08675231 0.20501716
0.05347773 0.34603161 0.16416313
-0.29587942 0.31086469 0.18279925
0.34016562 0.33673066 0.17410064
0.30244341 -0.30111757 0.18794695
-0.15717556 0.29105556 0.19324946
0.29814327 -0.27282879 0.18849722
-0.38035005 0.04744095 -0.02869622
-0.07607363 -0.24378540 0.18964326
-0.21813934 -0.04741891 0.19736677
0.13540752 0.33992308 0.18800512
-0.11070031 0.09729214 0.19459876
0.18490238 0.14707567 0.19953598
0.23451115 0.09135925 0.18981907
-0.36028296 -0.36049742 -0.13367763
0.07742647 -0.36945516 0.17582178
-0.34764650 0.19648024 -0.06571703
0.17307077 0.12582082 0.15633285
-0.31410763 -0.04569238 0.18219078
-0.21631852 -0.02711619 0.19114898
-0.35844952 0.34232396 0.06385373
-0.29021162 0.05834445 0.18874548
-0.22283506 0.27240142 -0.07609301
-0.12435911 -0.31406280 0.17114139
-0.34878582 -0.36322823 -0.02034062
0.02898234 0.23574531 0.20769197
-0.05251483 0.02409737 0.17632607
-0.29698005 -0.18161768 0.19608262
-0.36252162 0.17539901 0.18704431
-0.10301698 0.35856301 -0.02313405
-0.33633035 0.09587864 0.19057356
-0.21131337 -0.04880957 0.18579055
0.24129051 -0.20213208 0.18966983
-0.20245811 -0.39707744 0.18542872
-0.26903802 -0.35988918 -0.00069313
0.25894108 -0.12291020 0.20028225
-0.27758175 0.16998245 0.18596229
0.30492520 -0.31442171 0.18446547
-0.15342334 0.15453808 0.19486347
0.30356050 -0.21077153 0.17609946
0.29813683 -0.13513793 -0.07937192
-0.11562078 -0.07363002 0.20099765
0.06978680 -0.20290729 0.18477681
-0.15574707 0.05454410 -0.07735747
-0.30889729 0.29684964 0.18113889
0.09694772 -0.40638715 0.18687735
-0.32723916 0.22650194 0.19142459
-0.02412598 -0.30510008 -0.09081994
-0.35123837 0.34221220 0.18737091
-0.36725020 0.27366680 0.17354611
-0.28956175 0.06975715 0.19800656
-0.09070215 -0.25024176 0.18566382
0.33877599 0.07789116 0.19869763
-0.18737967 0.33854419 0.18721355
0.02127492 0.08195782 0.18834573
0.25122827 -0.18747243 0.18547651
-0.21512100 -0.06855449 0.19277734
0.21377477 0.21229956 0.19350097
-0.32577932 -0.08031960 0.18810898
-0.06033015 -0.35454634 0.15740781
-0.33777583 -0.22718415 0.17096253
-0.17284150 0.06025172 0.19203457
-0.23710853 0.14093673 0.18532282
-0.34686327 -0.05363697 0.17517677
0.17621529 0.34406546 0.01378448
0.31059855 0.32555395 0.16441241
0.36031392 -0.40537602 0.18086800
0.11318509 0.11654107 -0.08627175
-0.09744360 0.35857975 -0.12210201
-0.30679998 -0.02990315 0.19187655
-0.31350601 -0.37811643 -0.22868174
0.26945841 0.08077134 0.19614072
-0.38403147 0.32680878 -0.17818357
-0.06002743 0.38285735 0.17077313
-0.31751668 -0.36865467 -0.19885615
0.28866455 0.28842786 0.19365363
0.06850936 -0.26429474 0.19431259
-0.07622907 -0.30596650 0.02894470
-0.33757049 -0.16578659 0.17632042
0.15302400 -0.15183327 0.19613603
-0.11652654 -0.13975081 0.19152194
-0.10825080 0.28372601 0.19220865
-0.37026215 -0.32756343 -0.12586991
-0.18485138 -0.03470482 0.19510776
0.16390185 0.28893450 0.18505470
0.14627276 -0.00624937 -0.01889774
-0.30247027 -0.27975267 0.18992594
-0.02208352 0.12684594 0.19212064
-0.21742448 0.02814199 0.17273369
-0.38759643 0.02502036 0.18978864
0.36239195 0.35777599 -0.13754937
-0.23599741 0.30576047 -0.05566388
0.09543674 -0.16730101 0.18808851
0.17348079 -0.26963556 0.18899971
0.02153655 0.21787623 0.19064714
0.07374181 0.01623138 0.17660804
0.30112940 -0.23852067 0.17296666
0.01336629 -0.23881969 0.16880748
-0.12610863 -0.29900172 0.18963723
-0.08150247 -0.01956438 0.18418004
-0.17751817 -0.05532916 0.19625823
-0.21934727 0.08789757 0.20632821
-0.19801572 -0.30643517 0.19046205
0.32255465 0.01623512 0.18742232
-0.32957396 -0.32409823 0.18395013
0.34114227 0.36885980 -0.01415488
-0.02897790 0.35783517 0.07840912
0.32918870 0.38158569 0.05347230
-0.18348384 -0.34445068 -0.13214764
0.15631577 0.05518962 0.18980691
-0.34194678 0.01052821 0.17650586
0.30625007 0.30377695 0.17592536
0.22269426 -0.12346260 0.18665718
0.05913265 -0.09009986 0.17330413
-0.15554181 0.18031210 0.17857464
0.09348191 -0.35725182 0.18772587
-0.33591795 0.38323259 -0.12612814
0.04775286 -0.28143093 -0.07810567
0.20246422 -0.26073718 0.18955770
-0.07188476 -0.20390725 -0.07456760
-0.09672109 0.17592379 0.19060463
-0.00093308 -0.31695715 0.19353153
-0.07507788 -0.19295661 0.18480803
0.30777973 0.33575377 0.17607902
-0.12769200 0.27581432 0.18860050
0.24837357 -0.33418655 0.17806381
0.23103443 0.21687590 0.18452308
-0.33251971 -0.32603768 0.18325466
0.14900507 0.17451338 0.18450800
-0.37963030 0.27499205 0.17624085
0.18743561 -0.21807463 0.18736932
-0.03896483 0.26344326 0.18338777
0.09853580 0.19787925 0.19553389
-0.22967681 -0.08361921 0.19321047
-0.37965900 -0.23894188 -0.06993798
-0.34823152 0.14338495 0.12020721
0.05056630 0.12633944 0.19436038
0.25978577 0.08160422 0.17907333
-0.27151164 0.37786809 0.18297464
-0.27333459 -0.16073009 0.19171497
0.01684162 0.35833237 0.18560681
0.24394207 0.26127809 0.18453132
-0.18596590 0.25532264 0.18268284
0.29590699 -0.34918007 0.14371373
-0.18028198 -0.04925045 0.19007380
-0.33742616 -0.16403964 0.17862403
0.35019112 0.29148662 -0.05050730
-0.24824579 -0.12690954 0.18126650
0.20537537 -0.00197542 0.19175607
-0.08983180 0.33516014 -0.04323614
0.08346218 -0.31684911 0.19004121
-0.36401367 -0.37570840 -0.17104955
0.15223873 -0.35308874 0.15708174
-0.19727881 -0.15900852 0.02518113
0.32557809 0.38214290 0.06787237
-0.03552040 -0.06237630 0.18734977
0.28349063 -0.25936285 0.15813217
-0.27999660 0.34074491 0.16376108
0.22363704 0.38098156 0.07902742
0.24229850 -0.35649899 0.16519657
0.01194957 0.31758842 0.19456294
0.32397720 0.17537656 -0.09553236
-0.30436277 0.38600206 -0.14529699
-0.19966675 0.17422874 0.18403620
-0.27809370 -0.30532610 0.18031147
0.34968671 0.28557310 -0.16116866
0.34484807 0.32513675 0.11452635
0.28129977 -0.38005829 -0.14933814
-0.18631530 0.35822532 0.12623224
-0.32629496 -0.28527489 -0.18281858
-0.34185511 0.10263392 0.18298456
0.05809074 -0.12330405 0.18594459
-0.02889029 0.27925000 0.20417747
-0.04095294 -0.04735274 0.19525175
0.35015053 0.12893005 0.17180638
0.25595444 -0.28799999 -0.16909420
0.34637788 -0.32104316 -0.16009831
-0.15420212 -0.16834562 0.17938058
0.19675803 -0.25221282 0.18702073
0.11359461 -0.07030132 0.17317033
-0.27358860 0.09034929 0.19397157
0.16342022 0.04912545 0.20040058
-0.34389722 -0.29023594 0.13304183
-0.29562345 -0.36481392 0.09659838
0.21955693 0.00819445 0.19197169
0.34563375 -0.30342266 -0.09762511
0.09261739 0.34253654 0.17534488
0.02609087 0.09753314 0.19010825
0.18983778 0.26276770 0.17932574
-0.08514686 0.35800087 0.18606839
-0.24165598 -0.06983300 0.17502262
-0.26360193 -0.33688119 0.16878718
0.06039642 -0.19499697 0.19512938
0.15791756 0.18175529 0.19104593
0.22266653 0.35251188 0.13667873
-0.33229059 -0.14456336 0.18504120
-0.31694481 -0.34465507 0.15407850
-0.16586259 -0.05364254 0.19051695
-0.33336651 0.13473633 0.18653770
0.03136609 -0.12419357 -0.03160760
-0.02214808 -0.07456148 0.19556485
-0.27596146 0.02989925 0.19463882
0.28040037 0.35993022 0.18191788
-0.27626294 -0.16257533 0.18584178
0.28663060 0.38173497 -0.15625902
-0.18483935 -0.35583764 0.14723703
0.21494624 0.23263983 0.18796241
-0.12167919 -0.07698970 0.18733978
0.33060876 0.18338859 0.19157168
-0.08570509 -0.15078904 0.17935118
-0.27241227 -0.02477204 0.20222698
-0.19812497 0.08634298 0.18596552
0.35002029 -0.17034654 0.04667103
-0.18434966 -0.13730836 0.18479902
-0.34681880 -0.38982591 -0.17679805
-0.15436199 0.04618464 0.20463856
-0.16472828 -0.03200085 0.21074228
0.12005866 0.36559868 0.18045802
-0.30129248 -0.16419019 0.18674275
0.30245140 0.21632499 0.19437139
-0.33914346 0.12401564 0.10542844
-0.08340155 0.24504177 0.18628876
0.18255234 -0.15143365 0.18956034
0.33080414 -0.10224691 0.19631912
0.17095868 0.03348653 0.19477385
-0.09297195 -0.29769060 0.18362787
-0.35839993 -0.37622970 -0.19479312
0.06702786 0.37282583 0.19398202
-0.23900327 -0.04610561 0.19360916
0.31905073 -0.34188116 0.16874291
-0.06776361 0.29353848 0.18820792
-0.30093718 0.20258415 0.19184399
-0.33159512 0.07131266 0.18978059
-0.17934975 -0.26667833 -0.05787303
-0.04998190 0.30957425 0.18613347
0.27571657 0.37182471 -0.14418933
-0.07958151 -0.20847704 0.18935996
0.19794130 -0.12770262 0.19480623
-0.19056445 0.23721179 0.18525596
-0.03344891 0.03845516 0.18645282
-0.00845483 -0.20580029 0.19020778
-0.37970257 0.12177823 -0.10597744
-0.35099939 0.33270308 0.09376380
-0.37547976 0.31354320 -0.15617748
-0.23602462 0.04712754 0.18691465
-0.27485853 -0.20867224 0.19140789
0.32465163 0.05838089 0.15221550
-0.14620204 0.22528642 0.17817877
-0.01885936 -0.14493781 0.18746227
-0.29363990 -0.37048686 -0.17174658
0.25502199 0.01542576 0.17867473
-0.10503227 0.35091174 0.13825421
-0.19463496 0.16658492 0.18567106
-0.02892459 -0.36669764 0.19463257
0.24485570 0.12880327 0.18509848
0.11043647 0.03707351 0.18442930
-0.30183905 -0.27765772 0.19013248
-0.09207613 0.06564245 0.19079618
0.26278350 0.09661442 0.18283895
0.19981605 -0.06015013 0.19000810
0.23998165 -0.33385640 0.16129556
-0.28516814 0.08834736 0.19594611
-0.37468827 -0.24166645 0.19560501
-0.30330920 0.04446999 0.20085798
0.30221742 0.15393506 0.19318953
-0.03605716 -0.22016393 0.19289595
-0.32939488 -0.01667888 -0.12276763
-0.25288630 0.04986964 0.19454633
-0.31443223 -0.37751633 -0.16684449
0.22131687 -0.16517517 -0.02580513
-0.05444746 -0.27881715 0.17911682
-0.26019979 0.15250269 0.19116120
-0.04579420 -0.23432186 0.18806794
0.09091315 0.03269700 0.01273175
-0.24049380 0.02502794 0.19534566
0.34018162 0.01991611 -0.03315386
0.25788820 -0.36640108 0.18245134
0.02673830 0.18774652 0.17940331
-0.03896739 -0.10248448 0.18844201
-0.15741611 -0.20514645 0.17839979
0.31051835 0.34582907 0.18334454
0.26024604 -0.12500133 0.17837052
0.16430235 -0.26370460 0.19809029
-0.31259504 -0.17840724 0.16565536
-0.21781491 -0.02531259 0.15758847
-0.07645509 0.36800250 0.17676423
-0.15204808 0.07869734 0.18025909
-0.00525817 0.38845140 0.06376228
-0.06746277 -0.24985206 0.18403289
0.04349561 0.27347329 0.18421885
0.28574917 -0.09016569 0.17555626
0.05894148 0.32348549 0.18757306
0.03006703 0.31891418 0.18504848
-0.09015985 0.21654387 0.18815529
0.15315405 0.24738154 0.18776168
-0.17012042 0.15793362 0.17923270
-0.17614393 0.01929055 0.18954884
-0.21841756 -0.24345878 0.19079761
0.18896115 -0.34911823 0.09272668
0.01654189 0.25785470 0.17943211
0.33738279 -0.00287470 -0.09803522
-0.24727857 0.11091276 0.19040133
-0.12282138 -0.12395914 0.19714321
0.31765285 -0.26447627 -0.16832075
-0.07017195 -0.35308075 0.17859200
-0.13660431 -0.34230670 0.17754655
-0.01776281 0.03347757 0.18336171
-0.02514154 0.25540939 0.19088101
-0.04871297 -0.13929208 0.19737215
-0.16996638 0.04400481 0.19232337
-0.13410291 -0.11899701 0.19175860
0.11055118 0.35525945 0.10712159
-0.15685898 -0.29878250 0.18321805
-0.34871581 0.38381201 0.17004570
-0.30042893 -0.34917414 -0.08996271
-0.04110107 -0.35128725 0.20118095
0.28322086 0.00709352 0.19004126
0.30531907 -0.34420484 -0.12429902
-0.05152955 0.20806374 0.18905446
0.18640634 0.06086328 0.18921468
-0.27081591 0.13213637 0.16417274
-0.35960025 -0.11200661 0.11803872
0.08433092 -0.29682672 -0.06147169
-0.34040627 0.17516874 0.20090935
-0.35875389 -0.26391065 0.15768285
0.13537577 0.17939575 0.17426687
0.06088959 -0.30766350 0.06562455
0.12593678 0.24831378 0.18362720
0.34245092 -0.11445732 0.17355885
-0.34305885 0.27227253 0.10989255
0.25732023 0.26275402 0.00866378
0.05664228 -0.32608137 0.17252298
-0.35441628 -0.06555803 -0.06378416
-0.30863041 0.02147361 0.17441310
-0.09065348 -0.01496564 0.19103535
0.11180343 -0.35268533 0.18420498
0.29836819 0.02605145 -0.09299400
0.34109512 0.17893526 0.13935857
-0.10529889 -0.17988083 0.18932596
0.06282758 0.36718780 0.19763590
0.04031497 0.29246944 0.19281068
-0.25988591 -0.04814636 0.16504544
-0.21569550 -0.30605221 0.19333072
0.10250201 0.27983922 0.18981318
0.37246042 0.34309912 -0.12433153
-0.03673068 0.27324080 0.17175192
-0.37185812 -0.09443060 -0.02980739
-0.09430969 -0.03831884 0.19831340
-0.26222980 0.13348569 0.19500825
0.03419589 -0.31120187 0.18944581
0.34320179 -0.34869048 0.01197623
0.37418512 -0.06128671 0.12937325
-0.18160069 0.33711278 -0.00292128
-0.15822002 0.02909365 0.18690497
-0.16833074 -0.32981330 0.19426630
0.21234378 0.29444906 0.18340212
0.28914231 0.26470792 0.18956105
-0.30186164 0.21102403 0.19287282
0.02349091 -0.00457723 0.19460776
0.12555474 -0.03821125 0.17420077
-0.15364584 0.01737342 0.14427544
-0.19814022 -0.02318852 0.17403930
-0.09440643 0.24184926 0.19325577
0.01671040 0.06597905 0.18560545
-0.15991297 0.29557624 0.16233221
0.27413917 0.10326932 0.19428636
-0.25675225 -0.31609839 0.17516628
-0.22883980 0.09120196 0.20333774
0.31022096 -0.31286135 0.18850948
-0.19849177 -0.25784758 0.18230250
-0.17982119 -0.01232837 0.19006260
-0.27716306 -0.33798957 0.17227080
0.19563691 -0.31154189 0.19601141
-0.34998119 -0.09727161 0.19229577
0.07529371 0.36834866 0.19479245
0.16259438 0.06692275 0.11875319
0.06939986 -0.14791459 0.18628992
-0.21390535 -0.08516262 0.20107737
0.29353574 0.36045241 -0.05187167
0.25494197 0.20433338 -0.08273773
-0.30664396 0.22478268 0.17931603
0.16100697 0.13793540 0.17600954
0.03213335 0.18492052 0.18318240
-0.20842832 -0.18332207 0.18499881
-0.37530237 -0.33399668 -0.16963606
-0.27402210 -0.30924112 0.18255115
0.25141558 -0.02132870 0.18453065
0.33105889 0.03981669 0.16681165
0.33555242 0.24430940 0.14191690
-0.09107310 -0.01125973 0.19322303
-0.32231826 -0.01458910 0.18606576
0.02382297 0.24682234 0.19674765
-0.01000071 -0.23852581 0.18571131
0.35147265 -0.35697478 -0.11054797
-0.08790416 0.31915650 0.21347098
-0.21984060 0.15660524 0.19183433
-0.15715614 0.30945981 0.17017816
-0.32361931 0.07601726 0.19226541
-0.13515657 0.03816263 0.17616333
-0.28992435 -0.17015961 0.19136183
0.03035617 -0.19994763 0.19092299
-0.12994397 -0.37489244 -0.06372757
0.29180238 -0.27091461 0.19583325
-0.22414702 -0.13439821 0.18612280
-0.11263839 -0.29572061 0.17617904
0.25585061 0.26578763 0.18394798
-0.32967082 0.32594568 0.20298392
-0.36082840 -0.05771198 0.17912766
0.03841614 0.28345287 0.18565063
-0.25210774 0.29457957 0.19825877
-0.04533176 -0.32500708 0.18639439
0.21634522 0.11475620 0.19852526
-0.20130040 0.36845040 0.19144154
-0.03876187 -0.16565338 0.18361732
-0.33430332 -0.26824236 0.15436503
0.37219372 0.29432964 0.06131463
0.28833291 -0.03585602 0.18237397
-0.28858611 -0.23788691 0.17088667
-0.28904557 0.02833817 0.18873741
0.23404887 0.27991736 0.17542753
0.33157670 0.14335798 0.18768720
0.14016904 0.18406793 0.18318473
-0.23132248 -0.06023517 0.19031392
0.16189069 -0.30754092 0.19106391
0.11096301 0.07104257 0.17660967
0.17630059 0.24892378 0.19911419
0.32237786 -0.01450443 0.17187423
-0.14588100 -0.24619520 0.19355151
-0.21789320 -0.03248489 0.18395990
0.20820217 0.04687014 0.18677129
0.23764947 -0.07995225 0.17843075
-0.25295866 0.15251069 0.19334179
-0.19115761 -0.31127620 0.16398561
-0.29261506 0.20116803 0.20141435
0.28430414 -0.13908044 0.18585113
-0.27321109 0.18785448 0.19706580
-0.17343853 0.00912250 0.19030087
-0.25662565 0.35026950 -0.06105349
0.34089765 0.18306156 0.18326910
-0.36000061 -0.32869411 0.19350958
-0.01714340 -0.03224969 0.14599746
0.18033195 0.04535973 0.19673970
0.16371830 -0.13245323 0.17893042
0.07026543 0.28415596 0.18653417
0.24375954 -0.35878611 -0.03876826
-0.31591356 0.30048722 0.19725503
-0.37245417 -0.14058721 0.17259477
0.27450365 0.09533188 -0.00622040
-0.21311806 0.00204561 0.20293933
0.03987158 -0.29997924 0.19440573
0.07719795 0.28133011 0.16916142
0.11526211 0.29341823 0.17857201
0.21010089 -0.00065072 -0.06029487
0.11600648 0.37710273 0.18421564
0.16957909 -0.08065295 0.17667753
0.12429187 0.35805953 -0.04248862
-0.00389173 0.26017594 -0.08999855
-0.34536517 -0.35587701 0.19046347
-0.32067752 0.20117584 0.19457130
-0.15688899 0.00939659 0.18606055
-0.17552121 0.25073457 0.18613639
0.31608862 0.32181728 -0.15791124
0.34276155 -0.03746139 0.15594183
-0.12870534 0.27033472 0.19046485
-0.23274028 0.29935676 0.18213192
-0.27914280 -0.15637448 0.18830982
-0.29630786 0.01498134 0.18938726
0.28761375 -0.23750898 0.15835211
-0.02389318 -0.31740621 0.12483370
-0.26291555 -0.36083809 0.19153106
0.19102661 -0.34362632 0.15583602
0.35768223 -0.31480044 -0.13929397
-0.32706872 0.30121222 -0.16573007
-0.26594073 0.21038513 0.17600264
0.34632397 0.25165454 0.16842905
-0.34153295 0.19251972 0.18191220
-0.27616373 -0.31603518 0.14528747
-0.37482390 -0.16269061 0.16472685
0.31444678 -0.37968159 -0.01415852
0.00548969 -0.07437431 0.19068323
-0.18903260 -0.15345231 0.18474534
0.12365052 -0.38060942 0.12430336
0.29008967 -0.14639762 0.19028258
-0.31834927 -0.29859680 0.18031497
-0.25144291 -0.02424509 0.11475594
-0.26908708 0.25842053 0.19090261
-0.25888374 -0.02550011 0.19433898
-0.12478101 0.25572562 0.18491994
-0.27999490 0.23486204 0.18545029
-0.03447091 -0.32143801 0.18678737
0.21713459 -0.08422315 -0.02195621
0.21591161 -0.18262362 0.17203957
0.05184060 0.37298471 0.16668893
0.23669699 0.30414087 0.15397647
-0.29664481 0.36805749 -0.13540758
0.01523831 0.02474516 0.18682344
-0.00351263 0.18982297 0.18666704
-0.13431126 0.08940084 0.19486293
-0.20634383 -0.34698755 -0.08068308
-0.24544600 -0.16174445 0.18737814
-0.18253255 -0.12936525 0.18497926
-0.24082479 -0.29129946 0.18814354
-0.23869617 0.16247176 0.13043320
-0.37621921 -0.09271514 0.15865894
-0.02579503 0.18515393 0.19312601
0.28004199 -0.09869230 0.19048841
-0.24900422 0.13308638 0.19937082
0.35489941 0.35860723 -0.17629455
-0.27554035 0.18563153 0.17655680
-0.08994751 -0.35599130 0.14283749
0.10034861 -0.17643762 0.18879001
-0.11898082 0.03572262 0.18694660
0.12476386 0.08043323 0.12931928
0.21798116 -0.37581620 -0.14842968
-0.36861753 0.32513672 -0.16128471
-0.27549273 0.17326403 0.19546841
-0.03033952 -0.28119087 0.19142084
0.09449825 0.04571010 0.19926129
0.26775414 0.22672647 0.17535152
0.20923612 0.18421388 0.01925063
0.09648746 0.20726161 -0.08827097
0.18553504 0.36318398 -0.06996399
0.21852387 -0.08163056 0.17797282
0.35581562 0.35504013 0.07516304
-0.23892628 0.19088957 -0.06250437
0.17782269 0.29401913 0.19071150
-0.20875596 -0.06717500 0.20269118
-0.34624931 0.03872913 0.18656136
-0.14053068 0.16773409 0.19291672
-0.20502706 -0.31232244 0.18845083
-0.07304830 0.17572562 0.18981738
-0.00121335 0.32711864 0.16402799
0.31340322 0.10513684 -0.08292722
0.10030802 0.37209010 0.18801993
-0.32690892 0.02252453 0.17553189
0.27219641 0.35790148 0.12267590
-0.19561483 0.36532485 0.19303887
0.28611666 -0.32827723 0.04317716
0.11687802 0.29962814 0.19623595
0.06637137 -0.24563687 0.19038741
0.11376874 -0.19261459 0.19134352
-0.18057519 -0.01711174 0.19240120
-0.05489856 -0.07005209 0.18766662
-0.29241198 -0.03019148 0.19282185
-0.21269476 -0.02821315 0.19010888
0.23672104 -0.25588453 0.19361949
-0.13451831 0.30477753 0.17740498
-0.32843959 -0.10269173 0.18234602
-0.31040308 0.10777343 0.18897474
-0.21090123 0.02412318 0.18893658
0.13813820 -0.37174642 0.19850753
-0.20122951 0.25973862 0.20479551
-0.33913270 0.28677264 0.18744025
-0.35254699 0.28456002 -0.01869300
-0.30635372 0.02589583 0.17759359
0.10983858 -0.34831786 0.18586594
0.14040279 -0.18175566 0.18356717
-0.20743486 0.12714757 0.18588945
0.11830410 -0.19706246 0.17919627
-0.35567179 0.09233383 0.19331095
-0.33572793 0.11145642 0.18787274
-0.19443855 0.36876220 0.18483797
-0.30901176 0.35264271 0.17851704
0.24118257 0.24490067 0.17223422
0.33129916 -0.32571009 0.03474003
-0.16013692 0.28837773 0.19257677
0.18566805 -0.19518319 0.18831855
0.23722044 -0.29724553 0.18136807
0.16646792 0.33485162 0.19514534
-0.14514238 0.01420037 0.19239163
0.08814500 0.36620349 -0.12669751
-0.04150129 0.21572563 0.18999927
-0.11566298 0.25138843 0.18124904
0.31705227 0.09438673 0.16765741
0.34694940 -0.02798891 -0.03493616
-0.17713204 -0.08111019 0.19132721
-0.33391279 0.03805658 -0.09283287
-0.14222664 -0.29895341 0.18388729
0.14128867 -0.27893916 0.18321991
-0.09622965 0.13987890 -0.01561154
0.23450454 -0.24047653 0.19495077
-0.37921387 -0.20869784 -0.12715273
-0.12010133 -0.03111812 0.18608232
-0.28499579 -0.25521988 0.18880185
-0.21327777 -0.03836425 0.18285581
-0.33302155 0.11125124 -0.08463540
-0.09851916 0.34372777 0.18945017
-0.03462743 -0.17036408 0.19846530
-0.34519508 0.28531694 -0.14231582
0.22554217 0.35654408 0.19064265
-0.18529560 0.02278873 0.19017094
-0.36534908 0.37876487 -0.17408761
0.01018134 0.22110444 0.19338122
0.17158553 -0.37870675 0.19512244
-0.27464283 0.21111520 0.19936383
0.17848910 -0.38026568 0.17606603
0.33544752 0.36759070 -0.16634533
-0.14454430 0.16611367 0.17591842
-0.31553772 -0.10395761 0.13857172
0.07375976 -0.12334764 0.18414302
0.18503596 0.31711558 0.18056521
0.34365270 0.38884586 0.00045601
-0.35996872 0.38275594 -0.13787328
0.13007355 -0.22839636 -0.06846417
0.21912426 -0.11700641 0.18094884
-0.34187526 -0.05303728 0.11736013
0.35914251 -0.37361288 -0.15739861
-0.23138911 0.01108779 0.18604970
0.32623890 -0.29767007 0.19809280
-0.29686111 -0.24856740 0.19064698
0.27708280 -0.07904366 0.20631251
0.34398434 0.16593730 0.19058888
0.15195930 0.09629837 0.20736007
-0.32195443 0.01342708 0.15060566
-0.03579075 0.05430319 0.19252719
0.19722109 -0.09937596 0.18963541
0.09605238 -0.01419674 0.17905885
-0.27043962 0.02740391 0.19530557
-0.24714550 -0.06715408 0.20555611
0.21921584 -0.26521584 0.19239345
0.25583804 0.41614991 0.15660305
0.20688699 0.33038589 0.17422706
0.22790295 0.06441298 -0.08906376
-0.23016134 -0.35986671 -0.12179869
0.33383417 0.23670599 -0.05999518
0.25655669 0.13928466 0.18425578
-0.36319834 -0.27418837 0.19594453
-0.34956497 0.24623759 0.17391364
-0.24098760 0.20992656 0.18648450
-0.32019788 -0.21101630 -0.13281296
0.17149487 -0.00467084 0.19844452
0.19227614 -0.16632453 0.17325306
-0.39582592 -0.35516855 0.06354854
0.01498303 0.34851056 0.17226575
0.34029758 0.27587891 0.12526931
-0.25538006 0.26877284 0.18184283
-0.05423483 0.10210729 0.18556932
-0.13935007 -0.01760577 0.19324312
-0.07510089 -0.06860276 0.19129434
0.05422780 0.20892924 -0.00811896
-0.03126775 0.03222056 -0.07536260
0.35462338 0.35111877 -0.12449411
0.30720410 -0.11276665 0.15308554
-0.19196568 0.29501900 0.18787454
-0.38061392 -0.37205279 -0.17438655
0.08195479 0.11830847 0.17603935
-0.07292669 -0.15484136 0.17577627
-0.06322706 -0.32956585 0.06032054
-0.18479441 0.31680143 0.17961609
-0.16839507 0.10899462 0.16669650
-0.17392986 0.09000533 0.19077383
0.16817372 0.27877852 0.18351965
0.12060785 -0.11326590 0.17929226
-0.21694075 0.35077643 0.18591926
-0.38102424 0.31146383 -0.18388584
-0.00726051 -0.32852292 0.18622747
-0.33629668 0.03564929 0.16967267
0.16149262 0.36125636 0.16266958
-0.17501068 0.37331319 -0.12986301
0.35083753 0.14666566 -0.06652256
0.01317331 -0.21568811 0.19043249
-0.33956611 -0.12648781 0.17428267
0.08858774 0.10550684 0.17985213
0.21137547 -0.30087793 0.18357936
0.12835179 -0.21443366 0.16195932
-0.24221501 0.30018798 0.19850518
0.12353289 0.01852410 0.18849450
0.33381087 0.26153797 0.17296606
0.02204541 0.25737154 0.19066872
-0.33217376 -0.33667114 0.14589956
-0.19607469 0.27577120 0.20104541
0.29553548 -0.33964682 0.16202120
0.33272243 0.15395460 0.16212896
-0.35679066 0.02118411 0.19107997
0.04141650 -0.19199859 -0.09049128
0.22082436 0.13688207 0.19127505
-0.32427865 0.32153761 0.18767887
0.26554659 -0.17553407 0.18749355
-0.34453440 0.21624540 0.17956176
-0.32558027 0.29481041 0.18795499
0.24102011 0.33187869 0.17587668
-0.11792897 0.04412204 0.18408470
-0.32484078 0.02437002 0.19480340
-0.17101642 -0.10440008 -0.09527492
-0.33052826 -0.00695340 0.19435151
0.15214723 0.31369740 0.18716364
-0.01361428 -0.17842963 0.19158849
-0.34007955 -0.24415979 0.15328923
-0.04935144 0.05429430 0.19067059
0.32942739 0.04852983 -0.05043789
-0.10846901 -0.17312773 0.19746713
-0.10651531 -0.23912689 0.19138110
-0.12040932 0.31334686 0.15215385
0.17419502 0.33639520 -0.15456466
-0.28321791 -0.02965565 0.19043352
-0.27180457 0.13777970 0.16452613
0.13743508 -0.33920550 0.16038202
0.21368477 -0.12536058 0.18222097
-0.40002030 -0.09756103 0.18388650
0.16739713 -0.12606303 0.19573446
0.20483814 -0.33035395 0.18558800
-0.18260878 -0.06277121 0.18115936
-0.30822748 -0.18374188 0.19546089
-0.17650923 -0.01385134 0.18520431
-0.03790903 0.11204074 0.18873556
0.29845789 0.02489584 -0.10892309
-0.39032847 -0.24713415 0.14776577
0.22627884 0.33694273 0.18157408
0.24699666 -0.25033039 0.17718033
0.17587174 -0.24201801 0.15556023
-0.06089051 0.05117602 0.18962653
-0.30335531 -0.14173886 0.18893932
-0.32353729 -0.29141051 0.21240383
-0.04308484 -0.26552498 0.18519905
0.10796760 0.34734482 0.18812919
0.05088374 -0.05709586 0.17784201
-0.23229140 -0.08557216 0.18014160
-0.36103326 0.01165475 0.17911012
-0.32432324 0.33636761 0.17768358
-0.08385310 0.06140520 0.18081629
-0.17870821 -0.23673259 0.18910457
-0.07770356 0.26926005 0.17735079
0.14113131 -0.21225724 0.21330993
-0.15070103 0.15435776 0.18923266
0.02802847 0.33360326 0.18628396
-0.28234556 0.12147205 0.19247057
-0.35798502 -0.34690869 -0.14179772
-0.24529696 -0.00903810 0.19258505
0.30379024 0.11886849 0.16369507
0.20606354 -0.15133266 0.17796603
-0.30759516 -0.08378181 0.18568358
-0.27540252 0.12842041 -0.06732322
-0.01574694 0.01283285 0.19561827
-0.02206878 0.15520296 0.18594931
0.06788214 0.32638571 0.18871748
-0.07292689 -0.26722836 0.19179286
-0.07195957 0.12598476 0.13934049
-0.31323650 0.05840591 0.19255665
0.32994482 0.16315538 0.18706243
-0.24361458 0.13726628 0.18545376
-0.31010926 -0.22392014 0.17471352
0.04532089 0.33419186 -0.09235679
0.23545933 0.35288638 0.11745258
0.27809942 -0.20256914 0.18396086
-0.20350343 0.00061225 0.18908036
0.17032769 0.08325832 0.14448771
-0.21520814 0.10446338 0.17433842
0.05355579 -0.19965419 0.18050589
-0.30432653 0.29637331 0.19075049
-0.12757839 -0.09802703 0.19176695
0.05970187 0.28632882 0.17573553
-0.30852938 0.00958172 0.18555050
0.30087522 -0.18003644 0.19244245
-0.32969022 0.04119659 -0.08071462
-0.16819721 -0.09697239 0.19372736
0.16532370 0.17098352 0.16777036
-0.09828532 -0.12389368 0.20240206
-0.05305382 -0.32452279 -0.05645245
0.15562561 0.24552909 0.18047352
-0.13408828 -0.22677892 0.18399678
-0.33881414 -0.35508162 0.09357360
-0.31016546 0.37123585 -0.16122332
0.29433793 -0.34289190 0.11124055
0.27165830 0.25147381 0.16171730
0.15592253 0.28306153 0.17366858
-0.26182836 -0.18937527 0.18562546
0.00178614 0.07726991 0.18801023
0.02559457 0.12326825 -0.09629585
-0.23281381 -0.01834237 0.17996001
-0.02613840 0.00364331 0.17484887
-0.02029727 -0.36606351 0.13800457
0.30412441 0.35323676 0.20100367
-0.21047653 0.35559630 -0.10122772
-0.08246818 0.04462830 0.17048125
0.24807417 0.37012160 -0.09760205
-0.19636281 -0.01732411 0.20936160
0.34774202 0.20630714 -0.00007552
-0.29999140 0.15156069 0.20167802
-0.03909189 0.13877372 0.18611898
-0.27405906 0.15438071 0.19831800
-0.14081077 0.25486612 0.17958640
-0.00092346 0.33982989 0.13169709
-0.25333849 0.09837126 0.18177059
0.30277073 0.23351279 -0.17455655
0.32194340 0.00239826 0.18365374
0.07350387 0.10075180 0.16816247
-0.14686053 -0.15593834 0.19556218
0.17716648 -0.26465517 0.19207214
0.21358132 0.15106100 0.18838482
-0.07099836 0.38256848 0.19192161
-0.07008348 -0.30797678 0.19544666
0.20735563 0.27446538 0.18893638
0.30285707 -0.35904005 0.19116725
0.21534541 -0.21939655 0.16442528
-0.35399139 0.09355381 0.06773811
0.11392836 0.32055596 0.17913203
0.18726097 -0.35995454 -0.06650105
-0.13136491 -0.07695663 0.19466966
-0.15749091 -0.33885607 0.18116468
0.36153936 -0.30494711 -0.08708511
-0.33683908 -0.35861820 -0.15105283
0.15750413 -0.20094842 0.18878731
0.31968045 0.35503983 -0.19255766
0.37414858 -0.18370047 -0.07648361
-0.35242975 0.19693401 -0.05128500
-0.09317321 -0.39506215 0.15139288
0.33326483 -0.02191545 0.18505111
0.14911328 0.32081401 0.19274820
0.01806962 0.33021823 -0.02600092
-0.20765251 0.00180682 0.18881159
-0.26794383 0.06408998 0.18498833
0.32915708 -0.24769068 0.16870776
0.22158504 0.34938884 0.15310298
-0.11659565 -0.31758344 0.18667653
-0.17338814 -0.32785296 0.17941338
0.34355497 -0.08488390 0.01816623
0.23169325 -0.12141904 0.19150545
-0.18160780 0.13528021 0.18920651
-0.29916161 -0.35306424 0.19120452
0.28075635 -0.31468377 0.16754715
-0.33602905 -0.19761544 0.19324321
-0.14597622 0.06832884 -0.09031816
-0.18975723 0.34885764 0.19971910
-0.29050633 -0.08189097 -0.00543867
-0.24316551 -0.22146186 -0.08591720
0.10473549 -0.08487473 0.17474778
-0.22577724 0.11746157 0.18208057
0.19390084 -0.09683423 0.15475670
-0.20940748 0.36278355 0.08053616
-0.16276810 -0.13667926 0.18402094
0.17896536 0.18577784 0.17731729
0.22930045 0.12019390 0.20334950
-0.35735208 -0.19252364 0.12662143
0.14351572 0.13563880 0.13572122
0.17184910 -0.35490814 0.19841971
0.17194590 -0.21251759 0.18344904
-0.20688109 0.07360835 0.18113261
-0.04670177 0.01605131 0.17730524
-0.35443962 -0.23748127 0.19355468
-0.38149661 0.35557473 -0.09006770
0.03008645 0.02290215 0.18567654
-0.21155688 0.06327070 0.18242991
-0.34700587 -0.06606661 0.03277430
-0.29234800 -0.07966390 0.17716385
0.27119356 0.32509419 0.11589157
0.06783847 -0.07230504 0.17436047
0.32964307 0.19541295 0.19374737
0.29015619 0.20705542 0.19235405
-0.07658956 -0.14824632 0.11193416
-0.34341925 0.14985101 -0.06517093
-0.14301640 -0.06331201 -0.08348010
-0.21381949 0.19117877 0.18572265
-0.24813333 0.20823762 0.18509379
0.15041353 -0.07966159 0.19122283
0.33280987 -0.23845206 0.10208177
0.23448674 0.15471143 0.19142762
-0.15586248 0.08912349 0.19380152
-0.23899034 0.24638547 0.19926952
-0.35718048 -0.21661115 0.18306351
0.29673764 0.00284551 0.18364294
-0.38317445 0.22149155 0.19347860
0.22704569 -0.06209728 0.15932246
0.20131046 -0.07584539 0.17090824
-0.31659150 -0.03721024 0.16424774
-0.27803984 -0.02688855 0.19862621
0.33691949 -0.16217959 -0.04185462
-0.12973647 -0.07636520 0.19029367
-0.28585255 0.29607356 0.18138318
0.26123506 0.07750987 0.18703024
-0.21566235 -0.33724171 0.18886392
-0.24452719 0.30401525 0.19649908
-0.26657403 0.20347640 0.19603117
-0.10363559 -0.13023688 0.18787631
-0.33016065 0.35499182 0.13505991
-0.06992100 0.13492754 0.18590964
0.33668008 0.00352001 -0.04053877
0.01939379 0.02901895 0.19030693
0.04813082 -0.27664521 0.19227187
0.32479393 0.13449065 0.18032111
-0.29707915 0.12138715 0.17429787
0.05208632 0.25351581 0.18992333
0.28958237 0.29019779 0.17403743
0.03517589 0.35271421 0.18537349
-0.09905416 0.08492045 0.18759474
0.14586148 -0.25780115 0.16809213
-0.14166704 -0.33430228 0.19003503
-0.28578660 -0.19609275 0.17554414
-0.26730737 0.32299691 0.18366128
0.03919335 -0.30303210 0.18453215
0.00414658 0.36836460 0.19892190
-0.35579604 -0.15865737 -0.04882180
-0.20329523 -0.01015510 0.18412779
-0.16167653 -0.26901394 0.18015096
-0.32317841 0.21180534 -0.11197916
-0.34240091 -0.11889571 0.16731369
-0.05625276 -0.18783136 0.18094851
-0.32942301 0.34244627 -0.18343306
-0.35348329 0.33288753 -0.08347902
0.12408610 0.01551056 0.17563492
0.27184105 0.39277875 -0.14386745
-0.11965617 0.05997495 0.18237244
0.18645856 -0.04387661 0.19839507
-0.33009067 0.03487130 0.18389702
0.22669402 0.36656889 -0.14664018
-0.03314316 0.23336852 0.18456385
-0.02639432 0.09819422 0.18910997
-0.23892254 0.25724551 0.16134758
-0.16017097 -0.07715950 0.18351500
-0.21859558 -0.22695550 0.18411486
-0.38618368 -0.30597046 0.03454398
-0.21127331 -0.15034148 -0.05696149
0.05272358 0.01325684 0.17696725
-0.19035764 0.01617227 0.18580134
-0.11037330 0.30888006 0.17803621
-0.11861949 0.16550526 -0.06418476
0.29716885 0.25033173 0.17152116
0.23098493 -0.23025565 0.19388214
-0.02294138 0.23950441 0.17157753
0.05614166 0.03890504 0.17205296
0.33346963 -0.36883545 -0.12869248
0.31117433 -0.12740193 0.00884737
0.33227900 0.25466129 0.08938132
-0.26516533 -0.05242884 -0.00490227
-0.28112349 -0.31827450 -0.05675172
0.21768266 -0.37212476 -0.15912680
0.01161545 -0.32311764 0.17590061
-0.18340892 0.03799569 0.18662018
-0.36951095 -0.20489965 0.19921872
-0.23655748 -0.03890482 0.18533288
-0.07915931 0.29242387 0.19989875
-0.21360022 0.01913803 0.18410029
0.35224622 0.12749141 0.12492266
-0.34001780 -0.06886143 -0.09806266
-0.36258671 0.30139357 0.19582132
0.28744525 -0.12954418 0.14955083
0.18582678 -0.28198019 0.19457513
0.29276180 -0.16928035 0.14771172
-0.20281513 0.11698848 0.18850659
-0.15517020 -0.14085907 0.18562432
-0.16543262 0.34887511 0.18116082
0.30985242 -0.23626806 0.18843335
-0.29171163 -0.30647984 0.18222301
-0.20884955 0.04989933 0.17315157
-0.06000863 -0.26871511 0.18678746
0.22603795 0.12560347 0.17884693
-0.33402732 0.13395414 0.18135196
0.31480303 0.14474469 0.16394725
-0.11717144 0.28835696 0.18083337
-0.33502096 -0.20139977 0.19686909
0.25660181 -0.28878835 0.17719743
0.25280952 0.10533106 0.17295545
0.33516437 -0.14208430 0.18264201
0.19270429 0.23145294 0.18957007
0.24469867 0.19193453 0.19214574
-0.25171530 0.10779328 0.19319358
-0.23022407 0.02626414 0.19109619
0.31126428 -0.21137005 0.18869525
0.30203405 0.07768810 0.01784680
-0.19990784 0.15044363 0.18635908
0.15762059 0.01369811 0.17213503
-0.24915947 0.29000407 0.15497619
0.17452787 -0.01015220 0.18914889
-0.04498433 -0.29517254 0.18892846
0.08915742 -0.08752032 0.18979171
-0.02554829 -0.01873729 -0.09685390
-0.04762914 0.00481122 0.19092363
-0.32348609 0.38467824 0.19844167
0.32880020 -0.08790702 -0.05331606
0.16281112 0.14587122 0.18398941
-0.25070304 0.19685574 0.18951252
0.09696476 -0.13742483 0.19598472
0.11813010 0.04863527 0.19059993
0.19343555 0.12057745 0.18662858
-0.11200625 0.23588002 0.18590683
-0.20614664 -0.29517293 0.19450471
-0.11215220 -0.18939397 0.19225284
-0.15800238 -0.23463288 0.19052131
0.10248313 -0.10510875 0.18469773
0.31999162 -0.05100099 0.18651274
-0.06802762 0.26623315 0.17803963
-0.12696369 -0.09825420 0.18553676
-0.12847361 0.12981656 0.18527941
-0.16485202 0.14781526 0.18967275
-0.35320151 -0.00748508 0.18886149
-0.37120155 0.20328486 -0.09425710
-0.21831632 0.06155428 0.17788593
0.17950985 -0.30321071 0.19385128
-0.31590319 -0.17004359 0.18357885
-0.26837638 -0.10859573 0.19037910
-0.15351816 -0.07027756 0.16515078
-0.27390990 -0.08316930 0.19631159
0.27559105 -0.09057806 0.17175871
0.24260485 0.27805465 0.17605156
0.14403500 -0.31694436 0.18516868
0.32150221 -0.06143361 -0.05545875
-0.23874316 -0.39465207 0.16085757
0.12608369 0.27776870 0.18613939
-0.31007636 0.03783957 -0.07133527
-0.31838694 0.26714024 0.18815006
0.15424021 -0.15290172 0.18677580
-0.31545252 0.12490407 0.18585420
0.16457292 -0.18795276 0.18969584
0.02844457 -0.28838158 0.18615949
-0.22627759 0.29241925 0.18167406
-0.27583990 0.18764931 0.18340920
-0.24092737 0.13923682 0.19233888
0.33542490 -0.27492818 -0.00310472
-0.11287008 -0.34117097 0.19112758
0.22152770 -0.18532157 0.18229228
-0.27823681 -0.22762033 0.18701874
-0.33942756 0.05604990 0.16795632
-0.20631433 0.34836584 0.15196306
0.36981055 0.13404508 0.05369269
-0.28464782 -0.11134411 0.18283589
-0.31468260 -0.06954482 0.19121885
-0.01505718 -0.14111803 0.19187523
-0.11249109 0.37148952 -0.10209904
-0.16605380 -0.12072040 0.19015728
-0.11926273 0.03033156 0.18437335
0.03171173 0.17891695 0.19793569
-0.08285908 -0.31612277 0.18478163
-0.13690022 0.03532466 0.18311206
-0.33561167 0.25406063 0.13150899
0.32987213 0.20683236 0.19308136
-0.01009105 -0.22338089 0.18962871
-0.11530928 -0.07401450 0.17682414
-0.17894325 -0.11781453 0.19997230
0.23613821 -0.23761216 0.19645381
-0.11287529 0.15723985 0.18997800
-0.35137981 -0.03754874 -0.07238188
0.10270099 -0.15292278 0.17886618
0.22885185 -0.22418886 0.20378648
0.05664379 0.24555534 0.19648346
0.33375552 0.15159169 0.12833633
-0.19990081 0.31197941 0.19432811
0.27542722 -0.13679364 0.13611497
-0.33894393 -0.22020970 0.00763811
-0.23756069 -0.12829308 0.18880996
-0.38348398 -0.36563843 -0.00522958
0.13891441 -0.34823692 0.18698931
0.33384377 0.17264313 0.18691695
-0.27915326 -0.15120676 0.20036681
0.36825085 -0.25617021 -0.10293628
-0.22379093 0.04561821 0.18609834
-0.31934109 0.13866341 0.18247190
-0.03682669 0.16942842 0.18654728
0.31600118 -0.33902538 0.16881743
-0.11176745 -0.32783267 0.19086719
0.12393748 -0.12952162 0.18797798
0.14952728 -0.34116349 0.19113928
-0.16867596 0.31277540 0.18347938
-0.37376112 0.19590276 0.18551782
0.18219009 -0.30170345 0.18885522
-0.11373878 0.03263163 0.18914233
0.09361979 0.27616513 0.18720311
0.25161576 0.33177912 0.18895304
-0.27569765 0.34721047 0.16368596
-0.26578191 -0.32012373 0.17834917
-0.34233677 0.35688221 -0.19572656
-0.10338551 -0.35955137 0.17180568
-0.24228758 -0.09766524 0.17723729
-0.24257253 -0.18590982 0.18698679
0.20985265 -0.21221617 0.18767284
0.31640184 -0.05612951 0.18624197
-0.30508530 0.04415638 0.18840796
-0.16568777 -0.17684975 0.18934460
-0.09624232 -0.06124219 0.19001845
-0.19665098 -0.15175760 0.18822163
-0.23118167 -0.03948748 0.19532067
-0.06075340 0.34328437 0.05986286
-0.36304981 0.06170282 -0.07707082
0.15275007 0.25694740 0.18811774
0.18309981 -0.31616598 0.19664423
-0.33182108 -0.25664017 0.18539360
-0.13672654 -0.27295601 0.19676369
0.10793132 0.28427863 0.19465262
0.35585648 0.32023132 0.04872342
-0.18600497 -0.19962931 0.19368675
-0.30392435 0.14451694 0.18728991
-0.06837414 -0.35031414 0.19315301
0.14445868 0.18917738 0.17132376
0.06449509 -0.31520075 0.18190867
0.03273909 0.10045737 0.18793689
-0.15286288 -0.27969638 0.19006090
0.06080623 0.15175167 0.16500729
-0.10457318 0.17902797 0.19129734
0.29686669 -0.01580510 0.18235590
-0.22470835 -0.16595459 0.08889272
-0.31481588 0.11129791 0.18842809
-0.27865383 0.17220771 0.20279102
-0.13806337 0.02783300 0.19155020
0.15295920 -0.33419132 0.19135262
0.09359958 0.16635114 0.18588267
-0.20011780 0.15923914 0.18387282
-0.00565302 -0.36510116 0.18952329
-0.21520120 -0.37511665 0.16199625
0.24452820 0.24090137 0.16843432
-0.32079387 0.13211516 0.19567350
-0.27360070 -0.10805035 -0.12009877
0.33676547 -0.36019048 0.07481798
-0.24380262 -0.08547503 0.19367617
0.11078400 -0.34472510 -0.06714109
-0.25003007 -0.10564476 -0.05697181
0.18376598 -0.14818099 0.19111283
-0.25400066 0.25869715 0.19904062
0.34668380 -0.31906301 0.07537404
-0.15526351 0.12231725 0.17624989
-0.09702449 0.06113632 0.19789442
0.07768123 -0.21977074 0.16961208
-0.34246328 -0.32567173 0.18541968
-0.32586145 0.31076390 0.17781880
0.12011585 -0.07273945 0.18317917
-0.10459214 0.33843827 0.18070941
-0.10011750 -0.19467987 0.19435422
0.36348608 0.32689804 -0.11175792
-0.09268737 0.25048956 0.18727243
-0.05065815 0.22325629 0.18887602
-0.12464260 0.11622150 0.18738693
0.22263467 -0.31722319 0.19547144
0.04294956 -0.18746130 0.17983875
-0.20344850 -0.27653918 0.12322263
-0.07866139 0.20822978 0.19166140
0.03099410 0.07094532 0.19348910
0.19232050 0.26805136 0.18851748
0.10676401 0.04474673 -0.06428201
-0.08142095 0.33615178 0.17777100
-0.22077055 -0.12767681 0.19325943
-0.09619138 0.07574023 0.19473314
-0.30351621 0.37653667 0.06923284
0.22071429 -0.18203121 0.17392495
-0.02436427 0.31675336 0.19486210
-0.03835176 -0.23674624 -0.08782657
-0.31781220 -0.01342839 -0.06911189
0.35080183 0.11724456 0.16425860
-0.34513062 -0.12845331 -0.07714753
-0.14465919 -0.12362832 0.18114446
0.18769892 -0.33265483 0.16610880
0.30392909 0.33866173 0.16925736
0.31301305 -0.31864327 0.17789400
-0.28938636 -0.03499149 0.17569000
-0.35925341 -0.14952388 0.18894151
0.07004269 0.13596880 0.18567550
-0.06720904 -0.35775420 0.17554337
0.23232964 -0.26474947 0.17968492
-0.26930356 0.37937716 0.03844722
0.01977423 0.20315906 0.18059224
-0.13314275 0.20009890 0.18722993
-0.20397447 0.07161439 0.18796419
0.26126325 0.24487309 0.18378213
0.05063475 0.19857080 0.18894924
0.31238532 -0.36963591 -0.14659369
0.09607761 0.03414366 0.17207308
-0.32902130 -0.32195029 0.14809451
-0.13082576 -0.08809675 0.18794066
0.27842864 -0.22656046 -0.08177275
-0.34300405 -0.21059288 0.18482965
-0.15105946 0.30739123 0.15801108
0.33964914 -0.19964617 -0.07265645
-0.13331603 -0.26832616 0.18882941
-0.17923710 0.10721420 0.18588468
-0.18540215 0.00658998 0.19595404
-0.22945267 -0.23133981 0.18583162
0.31511050 -0.33483183 0.18677162
0.12705965 0.37554380 0.10584984
0.10754879 0.16485387 0.18699041
0.19698927 -0.28105086 0.19698149
-0.29348058 -0.00821315 0.18769063
-0.13202196 -0.13284694 0.19165151
-0.24048999 -0.12210841 0.18680707
0.25359374 -0.21868140 0.19532427
0.34500310 0.31053773 -0.19778389
-0.16043478 0.00540955 0.19503169
0.05617679 0.35509819 0.18639603
0.34326667 0.32753310 -0.10813831
-0.29738683 0.01138078 0.19187520
0.09773491 -0.01174163 0.07381225
-0.35996211 0.09598847 0.02198488
-0.29030016 0.37620777 0.16479225
0.25706953 0.33798444 0.17274384
-0.35512054 0.37228602 -0.17440385
0.35280794 0.36494672 -0.16692385
0.25309530 0.03237343 0.18753836
-0.12389627 -0.06884731 0.19066519
-0.24941899 0.36629504 -0.08293511
-0.34597534 0.03389734 0.19668284
-0.38684148 0.10685542 0.18543796
0.35668600 0.17511027 0.15274972
-0.14139578 -0.28254205 0.18329303
-0.26043206 0.33368757 0.18919697
-0.35803497 0.20953555 0.17552598
-0.30163229 0.00314641 0.18277027
-0.29786783 0.33707985 0.17556830
-0.23726192 -0.15541019 -0.08056190
0.03359357 0.03307387 0.18945661
-0.18523437 -0.29565412 0.20082194
-0.08973660 0.37807509 0.18814030
-0.32491019 0.03277071 0.17152213
0.09508331 0.31310996 0.19103381
-0.17362300 0.20693302 0.20220141
0.07393202 -0.00664274 -0.09841576
-0.34154296 -0.03860214 0.19380534
-0.28408027 -0.38070980 -0.17312302
-0.35018462 0.26615083 0.14484037
0.12861797 0.01726052 -0.08504769
0.25335863 0.33348826 0.16983476
-0.14243717 -0.37034613 -0.05683184
0.26390144 -0.02018151 0.18629199
0.26246798 -0.25265071 0.17724355
-0.28130382 -0.16322146 0.18836038
0.10890430 0.18857548 0.17919268
-0.28277218 0.15840513 0.18145962
-0.16017941 0.34158766 0.19057690
0.13996385 -0.28213704 0.19683832
0.24066089 0.09910715 -0.07035759
0.18643488 -0.36476487 0.10834914
-0.23636486 -0.06368039 0.18230051
-0.02487363 0.36770469 0.15215337
0.16618450 0.09377952 0.18260522
-0.25373381 0.27806813 -0.17245051
0.06350136 0.27712265 0.19158563
-0.29339552 0.15189962 0.17712067
-0.35264337 0.39572880 -0.01809059
-0.24993786 0.23067781 0.19949029
0.36555946 -0.21668497 0.15830867
-0.24963968 -0.08752750 0.18999943
-0.36196744 0.35890824 -0.15203425
-0.35606694 -0.21256754 0.03923338
-0.26304549 -0.16793907 0.18301842
-0.12255251 -0.00704503 0.18742509
0.23082954 0.05317128 0.16879155
-0.28302246 0.17338280 0.18902026
-0.31643009 -0.00112890 0.18504597
0.30289102 -0.08237144 0.18532395
-0.18056518 -0.13624725 0.18667890
0.31398106 -0.05622551 0.15864047
-0.27343118 0.39363357 -0.12505704
0.14615333 -0.16681305 0.14758033
-0.18380362 -0.03979266 0.18531561
0.12606831 -0.29102311 0.17060131
0.24330471 0.16623524 0.18107334
0.20043074 0.27575403 0.19110715
0.33304137 -0.33182693 -0.13972077
-0.05072729 0.28959796 0.17903124
-0.27653134 -0.23824878 0.16962118
-0.10260225 -0.03970450 0.16739565
-0.13163027 -0.07420331 0.18870893
-0.36067945 -0.04596312 0.12040712
0.31402057 0.34812045 0.18741688
0.20499650 0.04204627 0.10604421
0.34868288 -0.35489553 -0.06040041
0.23016599 0.03158943 0.18083599
0.19470198 -0.29640332 0.19516809
0.28941140 0.35278088 0.17882876
-0.22503173 0.27657139 0.18819140
-0.19217318 0.13344270 0.20295088
-0.04812309 0.12937391 0.18901131
-0.30472705 -0.14273559 0.17311673
-0.01554125 -0.10055362 0.19647180
-0.16785264 -0.07812327 0.18093815
-0.29012138 0.18574490 0.18882148
0.13219972 -0.25102499 0.17939104
0.13150918 -0.21656631 0.19484931
