1368
-0.20144120 -0.39593169 0.12730925
0.22607660 -0.32548544 0.13122590
0.22056693 -0.34896481 0.12521522
-0.09204084 0.33948180 0.12471072
-0.01099117 0.14790754 0.12542109
0.05555924 -0.33968052 0.14565499
-0.02556001 0.06891626 0.12849329
0.07192568 0.13323863 0.12110660
-0.17315327 0.40978205 0.11983039
-0.18380985 0.30881000 0.12060119
-0.07959363 0.16071227 0.12086691
0.05870789 -0.26684195 0.12766086
0.11851139 -0.39018059 0.12338852
-0.13743593 0.27274460 0.12452537
0.07011226 0.40744048 0.12611271
0.08221416 0.28759465 0.12118820
0.06798123 0.02959465 0.12893826
0.22886045 0.39560416 0.12981729
-0.22587812 0.28071877 0.10206249
0.13472348 0.39879996 0.12909617
-0.05028163 0.26882356 0.03831691
0.01386360 -0.03920136 0.06628318
-0.09195696 0.33959317 0.12845705
-0.21431625 -0.13638964 0.11592250
0.21699440 -0.29058629 0.12110280
-0.02786410 -0.29333115 0.06376222
0.22597077 0.25123000 0.12540908
-0.17370227 -0.16603222 0.12862615
-0.18449229 -0.08944035 0.12578723
-0.11109257 -0.24646559 0.12571692
-0.13252604 0.27443224 -0.14398651
0.12856309 0.11679530 0.12751445
-0.09713563 -0.17823435 0.12541415
0.00787994 0.19845404 -0.07301988
-0.11151513 0.33177713 0.13703889
-0.00373930 0.14947774 0.11912977
-0.15669280 -0.36116564 0.12070374
0.01917511 0.05903543 0.12139701
-0.14839804 -0.16691293 0.11842216
0.07007512 -0.14510596 0.12322199
0.06735969 0.04521516 0.11999390
0.19788700 -0.22976354 0.12580761
-0.02299771 0.09961969 0.13666175
0.22558773 0.24966711 0.10947733
0.13352510 -0.07575672 0.12201516
-0.07734060 -0.39554834 0.12513122
-0.08521692 -0.27929688 0.12214486
0.19164196 -0.28457433 0.12720861
-0.05239195 0.31222337 0.13192222
-0.09069718 0.25055906 0.12583138
0.18420589 0.12200063 0.13213845
-0.20069256 0.11652920 0.12780625
-0.02339339 -0.20494497 0.12228665
0.08323378 -0.24041882 0.12590623
0.07033786 0.27443147 0.13067365
0.20849741 0.25783807 0.10032676
0.03558898 -0.16453229 0.12458611
-0.07408964 -0.30734015 0.12305349
-0.10170878 0.37525254 0.12524457
-0.02318242 -0.24752077 -0.09363475
-0.19508725 -0.19234802 0.11318768
-0.04069446 0.32113433 0.12326908
-0.06713994 -0.34816557 0.12276576
-0.06389793 0.37876517 0.12480048
-0.12995465 0.06375889 0.12463076
-0.02424689 0.17060927 -0.08174039
0.02896785 0.40938291 0.13142855
-0.07849530 -0.16481683 0.12804441
-0.10507441 0.41251895 0.12828173
0.02959165 0.21625184 -0.07359915
0.08084205 0.41819704 0.12287222
-0.05934079 -0.23442402 0.12454418
0.02497923 -0.07881629 0.03408828
0.05123745 0.37411830 0.12287275
-0.07746190 -0.13786764 0.12791878
-0.06431364 -0.41305530 0.11981583
0.14657949 -0.22854088 0.12248155
0.20413607 0.09018494 0.12096994
0.18427694 -0.05738861 0.11961005
0.07766046 -0.14861813 0.12356248
0.03999588 0.27373981 0.07319054
0.05084292 -0.20925054 0.14409009
-0.04853883 -0.01788452 0.13820243
0.21675847 0.32166964 0.12562972
-0.06233257 -0.12824316 0.12475584
0.19279535 0.22469369 0.12739892
0.07956074 0.37571317 0.13206097
-0.18491253 0.31593543 0.12237450
-0.01283981 -0.41657355 0.11299489
-0.00101966 0.19308561 -0.03236629
0.02826459 -0.36233985 0.12626521
0.10926022 -0.07888485 0.11689954
-0.14212330 0.07157069 0.12889194
0.06579984 -0.29883438 0.12580723
0.21801786 0.17190187 0.12931718
-0.12484519 -0.31991535 0.12627850
0.11450444 -0.37813455 0.13270287
-0.22840959 0.14742492 0.12108932
-0.04742810 -0.29083434 -0.10228527
0.17011198 0.28597766 0.12698081
-0.02456303 -0.03329553 0.12255701
0.13980636 -0.22492327 0.12294368
-0.00220694 0.01595025 0.02877687
-0.04588895 -0.23142496 0.05555955
0.13607854 -0.35600942 0.12737654
-0.00811817 0.07016692 0.12517574
-0.13413258 0.13251930 0.12112463
0.03087191 -0.28859118 -0.07346036
0.09595060 -0.04327817 0.12271249
-0.01559827 -0.10578121 0.02476817
0.10627465 0.41696420 0.12544465
0.14379847 0.34972966 0.12688096
-0.22337827 -0.30173749 0.12247447
-0.21563362 0.18472514 0.12676886
0.05607308 -0.13356450 0.12197067
-0.14301530 0.22330448 0.12656993
0.22699110 0.33962628 0.12184296
0.00508098 -0.39245501 0.10486431
-0.06053003 -0.27156758 0.08343243
0.18644218 -0.13649315 0.11755514
-0.00402197 0.12463759 0.09945370
-0.22101478 -0.22201315 0.12338188
-0.21908523 0.33959556 0.13136354
-0.05902680 0.41697699 0.12907138
-0.03744734 0.11599731 0.12466924
0.02090563 0.41690531 0.12733659
-0.07128684 -0.41326550 0.13073801
-0.00899501 -0.12621887 0.12339276
0.16319145 -0.31562880 0.12564516
0.00625365 0.13905141 0.12450409
-0.09739566 0.04661799 0.12159242
-0.20161642 0.33407632 0.09915060
-0.09816562 0.19189237 0.12461790
0.02068045 -0.19892970 0.08180118
0.12146223 0.40851545 0.12385173
0.01173063 -0.25052747 -0.06954572
-0.16638772 0.06711476 0.12561320
-0.19082262 0.23923242 0.13332775
-0.00649305 -0.23778802 0.12293515
-0.20916438 -0.07965682 0.11292231
0.21485353 -0.22014055 0.12344460
0.02761820 -0.30573088 0.14344537
-0.11235164 0.07866782 0.12693590
0.10683309 0.40292159 0.10524804
0.19364630 -0.41685122 0.13136661
-0.22831324 -0.25544614 0.12057979
-0.22633095 0.05515518 0.11595949
-0.22399148 -0.30217457 0.12438523
0.02817500 -0.26275006 0.14249466
-0.16534391 0.19118363 0.09316410
-0.17631413 0.22810608 0.08976411
0.01897220 -0.35264003 0.12371819
-0.20887724 -0.32277766 0.11834817
0.10907688 -0.20413296 0.12481206
0.07862420 -0.06850940 0.12042120
0.18769252 -0.18855117 0.13043760
-0.09768313 0.01526124 0.13333015
-0.07515999 0.26484239 0.12281626
-0.05382085 0.25242579 0.05378640
-0.07632899 0.05454851 0.12211558
0.10786580 -0.19670609 0.12151422
0.05112444 0.29061052 0.12677363
0.03449785 -0.24737133 -0.19032057
-0.02768525 -0.07285005 0.12504990
-0.03578919 -0.27020383 0.06637409
0.06813964 0.40211213 0.11874421
-0.00565682 -0.13312483 0.11902408
-0.03824466 0.13118021 0.12579583
0.20977674 -0.10988407 0.12349609
-0.18779251 0.09436558 0.12276229
-0.05713126 -0.16906318 0.12887740
-0.19964860 0.17774212 0.11219274
0.22588260 0.28521526 0.11964693
0.16468525 0.19006220 0.12801011
0.02061970 -0.32993051 0.12884358
0.06100420 0.36072785 0.12313746
0.15027782 -0.27484837 0.12448166
0.12008715 0.02962740 0.13872999
0.02532737 -0.27348951 0.00869481
-0.00942595 -0.06593627 0.15717128
-0.23378041 0.07272406 0.12609248
0.19014454 -0.27231675 0.12740719
0.07993594 -0.38063377 0.13460407
-0.00404591 -0.09896085 0.12018033
0.07105651 -0.23629178 0.12592524
-0.04557147 0.35669804 0.12713975
0.07395335 0.24514207 0.12230681
0.04326853 -0.10153103 0.12220925
0.14875931 0.14254986 0.12276976
0.11994335 0.28405774 -0.15038799
0.20254114 0.15588987 0.12534155
-0.19591027 -0.18468437 0.12088778
-0.11484648 0.33531153 0.13133433
-0.13613372 -0.17267798 0.12459408
0.10384932 0.26091051 -0.16149808
-0.04516046 -0.12935358 0.12516436
-0.03126263 0.22849116 -0.17535979
0.00650975 0.15635832 -0.09819689
0.06760070 0.21480884 0.12174461
-0.08544274 -0.29443845 0.12623510
-0.18047911 0.04936957 0.12966126
-0.20835897 -0.23913316 0.12055176
-0.09499039 0.08865819 0.12064712
-0.17086852 0.07424601 0.12806092
0.19835928 -0.41548461 0.12339266
-0.05877899 0.36414528 0.12269502
0.11860628 0.12670711 0.12381174
-0.16445783 0.33028036 0.12067834
-0.15554750 0.33467838 0.12398286
0.01695020 0.15441686 -0.07439382
-0.20335826 0.25845632 0.12771980
-0.09246150 -0.28667259 0.12498270
-0.01929394 -0.12547854 0.12347465
-0.12620281 0.19858006 0.10276365
0.22002733 0.15986778 0.10867766
0.13500044 0.29912668 0.12335868
-0.05052604 -0.09632112 0.12014244
-0.05456690 -0.14193134 0.12790708
0.02286104 -0.15477760 0.12463357
-0.14848761 0.17788421 0.12496497
-0.01029298 0.07765502 0.12313190
-0.15354133 -0.15588695 0.11960772
0.01501426 -0.27943438 0.05835968
0.03765699 0.14340745 0.12739964
-0.21712491 -0.14172244 0.12553713
-0.04760565 0.26375982 0.02597938
-0.03555293 0.40685165 0.12965976
0.11404508 -0.30705041 0.07799159
-0.05505548 -0.14042892 0.16135833
-0.18386851 0.39490449 0.13524033
0.18440305 -0.25750744 0.12307230
-0.06000578 0.19046369 0.12420817
0.13253155 -0.32497293 0.12105502
-0.13286415 0.07052924 0.12501088
-0.21939546 0.31454575 0.11288634
-0.15528896 -0.35197002 0.12146258
-0.13420779 -0.16889712 0.12683417
0.22116318 0.27543944 0.10688323
-0.22285490 -0.10839564 0.13434382
-0.00206113 0.36245695 0.12307051
0.10353717 0.36370778 0.12601732
0.22978327 0.16025764 0.12518783
0.20809770 -0.15949380 0.12455921
-0.03191963 0.17686167 -0.17004940
0.17259912 -0.35401177 0.12788017
0.06275826 -0.22511953 0.12098759
0.04116318 0.20406519 0.10379024
0.07820484 0.31149778 0.12598863
0.06971878 0.12595890 0.12413138
0.16710384 0.27458224 0.11904914
-0.11241993 -0.41751966 0.11341629
-0.02184611 -0.07652555 0.13225591
-0.15844804 0.23283520 0.11755766
-0.10758317 0.09660022 0.12761843
-0.21639249 -0.19839083 0.12226442
-0.01588035 -0.22780909 -0.10926677
-0.22410230 0.29695344 0.12054086
0.01043612 0.24132824 0.12402374
-0.17930737 0.11539030 0.12153372
0.24070656 0.21491937 0.12741181
0.21940793 -0.10403052 0.12357619
-0.10509096 0.04069914 0.12525761
-0.17917866 -0.32852313 0.12550668
0.02333881 0.17476237 -0.17105019
0.05436082 0.26084200 0.06683189
0.08393428 -0.26352298 0.12723471
-0.08417588 0.27950779 -0.12999895
-0.01859488 0.07688449 0.12196155
-0.07533240 -0.10214242 0.12531540
-0.10182303 0.30615702 0.13373527
-0.13900904 0.16097280 0.12732711
0.21492289 0.20130754 0.11119610
0.14584891 0.35813820 0.12353099
0.01664931 0.20457748 -0.06539570
-0.14412671 0.35914147 0.13240552
-0.03304865 0.41280174 0.13274473
0.10397831 -0.23093180 0.12816474
-0.04043804 0.23627111 0.12221632
0.07923932 -0.13664454 0.11982350
0.00551591 -0.17089228 0.04693968
-0.22454198 -0.27013943 0.13184962
0.08990985 -0.05637086 0.12597036
0.07901596 0.05801283 0.12137122
-0.00537708 -0.22487891 0.05410918
0.04871340 0.38583913 0.11554758
-0.04695508 0.42263183 0.12744884
-0.16469771 0.29124373 0.11670987
-0.09056106 0.28619069 0.12305474
-0.12519392 -0.18385440 0.12492181
-0.04332142 -0.15922984 0.12412728
0.06928346 0.19623694 0.12096049
-0.16850214 0.12679015 0.11857048
0.18994898 -0.01813896 0.12036455
-0.00930828 0.41618043 0.11628924
0.13037367 -0.12717429 0.14943406
-0.06265456 0.34172103 0.11716995
-0.19815853 -0.27605170 0.12766588
-0.01208031 -0.14931601 0.04204065
-0.03500651 0.23157863 0.01270248
-0.09958297 -0.17151570 0.15705527
-0.12477085 0.23907369 -0.15352838
-0.00627303 0.29624227 0.12399135
-0.04905593 0.22014317 0.12166309
0.21302067 0.32129771 0.10851602
-0.19565509 -0.15738876 0.12347294
0.20223178 0.33793372 0.10501366
-0.04778912 0.31855884 0.12101969
-0.01541814 -0.32060295 0.12666953
-0.10333755 -0.37045926 0.12348825
0.04148215 -0.27277511 -0.07901071
-0.01154600 0.26520133 0.09259707
0.06708574 -0.41627157 0.12239540
-0.11610347 -0.38345820 0.11902655
-0.21311794 0.20846359 0.12201276
0.13709956 -0.03063209 0.12279458
-0.13869599 0.05989868 0.12082218
0.02942870 0.12874247 0.11826053
-0.06386647 0.22021966 0.12121635
0.17628282 0.00750626 0.12241186
0.08369819 -0.30515695 0.08510071
-0.05880108 -0.35834646 0.14494070
0.24433888 -0.23429154 0.12354917
-0.15724637 0.40147746 0.13149631
0.09589987 0.27055860 -0.14956872
-0.00651183 -0.20473538 -0.08935571
-0.04646876 -0.04215332 0.12843366
-0.12766066 -0.33802140 0.12704301
0.14434113 -0.28963667 0.12753366
0.07527170 0.22337842 0.12185749
0.21333762 -0.05335279 0.12684391
-0.01292963 0.02973805 0.12180015
-0.04801331 -0.25434843 -0.01425891
0.06757604 -0.30239955 0.07399279
-0.01065902 0.15103945 0.12285273
-0.09749261 -0.39591917 0.12720095
0.00351520 -0.29884908 0.12329596
-0.12291683 0.07780140 0.13305309
0.20409805 -0.36047450 0.11939369
0.07547855 -0.41710731 0.11983386
-0.02396206 0.01282486 0.12681955
0.06959497 0.29453343 0.07932480
-0.17042303 0.17452228 0.12076821
0.12828068 -0.16721368 0.12259893
0.21272899 -0.23854774 0.11360674
0.03209631 0.23178452 -0.02242394
-0.01747504 0.18077391 0.00654443
0.00407840 0.41956413 0.12652139
0.06192754 -0.09374125 0.12436637
0.17029095 0.18088666 0.12438636
0.04427139 -0.28629190 0.05796966
-0.02473048 -0.24784324 0.10710774
0.11890951 0.14004599 0.12095632
-0.09129440 0.31481040 0.12400237
0.02518192 -0.04902204 0.08241256
0.05410349 -0.25085425 -0.14611928
-0.19691402 -0.32322577 0.11686032
-0.01719408 0.38255936 0.12160062
0.11052740 0.11561235 0.12084302
-0.00057164 0.32144949 0.12281461
-0.20953727 -0.09523209 0.12778535
-0.11710063 0.05346520 0.12090378
0.22036813 -0.39192611 0.12580734
-0.11554472 0.39391878 0.12238707
0.15282089 0.34638238 0.12727995
0.10109782 0.19850783 0.12845007
-0.21461743 0.35316420 0.12108181
0.03302553 -0.27764928 -0.04500162
-0.08195914 0.34277806 0.12340268
0.16491286 -0.39537966 0.12039813
-0.07418233 -0.14212729 0.12646285
-0.00172499 -0.22293398 0.03754074
-0.16268308 0.23464110 0.12734044
0.09099774 -0.19182867 0.12512513
-0.18795639 0.20566091 0.12477767
-0.02278824 -0.05873336 0.12621146
0.05608021 0.30274066 0.12390486
-0.05671999 -0.03680361 0.12023269
-0.00155770 0.27026004 0.12176150
0.00090922 0.16646029 0.00546197
-0.06383081 0.08396802 0.12167612
-0.00016348 0.16788152 0.01406967
-0.13762754 -0.10492098 0.12399062
0.13650632 -0.16116714 0.12166140
-0.21460330 -0.04313960 0.12565555
-0.13696080 0.27945948 0.12101494
0.19334488 0.29523861 0.12334848
-0.02322866 0.17715147 -0.12761858
0.02509983 0.04613311 0.05081532
0.04087056 0.27450776 0.01948394
0.09060130 0.20283522 0.11672223
0.02094340 -0.41858259 0.12844136
-0.10274564 -0.40441149 0.12010718
0.01953626 0.27706891 0.05239836
0.21269906 -0.41391286 0.12369689
-0.04834525 0.15279773 0.12512365
0.00918588 0.29705128 0.12270166
-0.04496848 0.41125447 0.13606682
0.22581953 0.36885929 0.12751332
0.01187845 -0.29810190 0.12031807
-0.18481523 -0.03305610 0.11754785
-0.01587900 0.10928892 0.12518848
0.01193932 0.15527548 0.11877707
-0.11037599 0.40693596 0.10842663
-0.08455932 -0.30752659 0.12382892
-0.09417499 0.27912050 0.07763755
-0.08010528 0.18056993 0.12290017
0.02278601 0.27022690 -0.07074238
0.12131558 0.14072467 0.10178056
0.01539295 0.06879407 0.12364107
-0.08920117 0.20271735 0.12450456
0.09126472 0.32602564 0.12455471
-0.10198776 0.32644871 0.12301927
0.08151055 -0.24420203 0.13014500
-0.19731620 0.21636811 0.10952678
0.09557843 -0.22011392 0.13803399
-0.12805925 0.37428313 0.12683278
-0.12530643 0.40165883 0.11774989
-0.13626182 -0.25059533 0.12502258
0.22739930 -0.35608912 0.13154101
0.13784339 0.00631104 0.12303063
-0.18012251 -0.21116439 0.12746754
-0.16447939 0.39257383 0.12449271
0.00116734 -0.11677686 0.05518492
0.05723217 -0.16876596 0.13016087
0.02527878 -0.24801344 -0.05367172
0.01701933 -0.27249372 0.09109171
-0.00552256 -0.26124051 -0.00018598
0.15098399 0.40190446 0.11879832
-0.11440846 -0.02281007 0.12459623
-0.08275945 -0.39055589 0.12714437
0.22128576 -0.39013708 0.12727122
-0.18188798 0.02310050 0.12705387
-0.04435372 -0.27959588 0.12556940
-0.09293063 -0.28983754 -0.14854148
-0.05962386 0.31939682 0.12515488
-0.05162875 0.07395175 0.12379889
-0.14947204 0.11453256 0.14069705
0.00804858 -0.34788767 0.12363361
0.04692814 0.25942242 0.12722260
0.18573160 0.20728864 0.11649917
-0.15041780 -0.18051103 0.12659982
-0.08510804 0.23120284 0.08194847
0.07867858 0.23278603 0.12779154
-0.18265027 -0.01039749 0.13078892
0.19080992 0.34826016 0.12276714
0.00484504 -0.02398353 0.04814957
-0.02216958 0.06636778 0.12196605
-0.14023688 0.10391933 0.12298317
0.16959286 -0.15577117 0.12006393
-0.00076319 -0.06629553 0.13911420
0.01177270 -0.23273985 0.12374074
-0.15131480 0.19755435 0.12316003
-0.06121992 -0.17007178 0.12480942
-0.14597623 0.26196629 0.08895195
0.00994825 -0.22507101 -0.11956862
-0.10304012 0.18453434 0.12079185
-0.07703287 0.30166516 0.07446800
0.17834346 -0.28079686 0.12435710
-0.05211440 0.13649631 0.12291900
0.15394264 -0.23466490 0.12131477
-0.04888871 0.13630363 0.12351080
-0.02842000 0.01524638 0.12143374
0.21534678 -0.29880452 0.12183842
0.02055457 0.11281427 0.11897528
-0.14641151 -0.21684173 0.12740396
-0.00295464 -0.23694481 -0.11917230
-0.14452857 0.24902245 0.12060542
0.08761647 -0.11668704 0.11678274
-0.02693371 0.40971708 0.12339726
0.09624455 0.22496504 0.12527558
0.04231572 0.27718320 0.04038639
0.10663666 0.05907267 0.14934579
-0.00389425 -0.27030015 0.12062093
0.15315181 0.23314136 0.09126859
-0.04426517 -0.42288172 0.12128001
0.12452381 -0.41570795 0.12471701
0.07002380 -0.27202064 0.16312739
-0.12092535 -0.28827974 -0.14481507
-0.01915149 -0.19678447 0.12799068
-0.07029901 0.25878948 0.10263140
0.08750532 -0.08976687 0.12058819
0.12147062 0.30993548 0.12577377
-0.15119678 -0.33278280 0.12597443
0.03217062 -0.05329030 0.12216907
-0.23518015 0.07085835 0.10997966
0.00867638 -0.28981432 0.01741371
-0.19943023 -0.16668481 0.12199224
0.16321388 -0.24227050 0.12023102
0.06301297 0.30374208 0.10797472
0.02734315 0.39799881 0.12854575
0.21454583 0.33240426 0.12203835
-0.17531361 -0.22982977 0.13038573
-0.01925411 -0.29907998 0.12653247
0.00709568 -0.25437304 0.04000147
-0.08645526 0.00744082 0.12618853
-0.01075745 -0.22573805 0.09385009
-0.19877201 -0.17403117 0.12551160
0.21555248 -0.08539732 0.12791651
-0.20090243 -0.34097177 0.12683076
-0.03992883 -0.13514550 0.13182509
-0.00953632 -0.32063490 0.12625846
-0.12656865 -0.33645284 0.12336574
-0.12723981 0.10317791 0.15620905
0.09239370 -0.36550069 0.12485517
0.14524236 0.13752714 0.12453284
-0.06563240 0.17121455 0.12566142
0.21183878 -0.29437882 0.12793447
-0.02574156 0.07131269 0.13476028
0.20576841 0.17784202 0.12395521
0.17854530 0.08123462 0.12704919
0.03959234 0.27203333 0.07803357
0.14965387 0.08806215 0.14250806
0.00861539 0.02268157 0.12087245
0.08586460 -0.25835016 0.12282571
-0.12976690 -0.30470565 -0.14872670
0.19332388 0.38197660 0.12601873
-0.06923000 0.13014886 0.12612815
-0.22369385 0.09293443 0.12513569
-0.13595921 -0.07986385 0.12139595
-0.19174695 -0.03676898 0.12284815
0.07208627 -0.21292973 0.12164354
0.18366005 -0.19199982 0.12847178
0.00439616 0.09344828 0.01787240
0.16465779 0.22073171 0.12092146
-0.12946221 -0.31269103 0.12872769
-0.11417192 -0.15731609 0.13697881
0.02112250 0.26718915 -0.05410326
-0.01447897 -0.06312101 0.11783034
-0.01665829 -0.22521326 -0.03369325
0.03966076 0.35511935 0.12284623
0.13685118 -0.35291612 0.12427960
0.18201573 -0.28429615 0.12725943
-0.00377708 -0.32864618 0.12698057
-0.02558761 -0.25768918 0.10069104
-0.02946377 -0.31106287 0.12208442
0.00254247 0.09808210 -0.18257105
0.02052702 -0.19718815 -0.06637999
0.18499509 0.20876752 0.08711387
0.09714352 0.28460029 0.12242851
0.05117066 0.25645858 -0.12998568
0.06878210 -0.32559767 0.12528421
-0.13173640 0.03037312 0.11936615
0.13274238 -0.11277433 0.12025291
-0.13072973 -0.17871663 0.12649436
-0.08897308 -0.23056868 0.11858048
-0.13696882 -0.41167313 0.12544325
0.18407071 -0.20199575 0.12345769
-0.09682950 -0.16598469 0.12559500
-0.17410265 -0.07115449 0.12955214
0.11251989 -0.36369032 0.13276878
-0.09865121 0.37830517 0.12670828
-0.03646447 0.38309175 0.10558906
-0.05707102 -0.11589587 0.12865940
0.02068758 -0.27447575 0.04142891
-0.18056183 0.34346354 0.13202730
0.14068060 -0.27580902 0.13846058
0.05190261 0.40601897 0.12074295
-0.22866359 -0.21906054 0.11981090
0.08528193 -0.32079560 -0.14903115
0.07796833 0.00092420 0.12402453
0.03684389 0.12956703 0.08796151
0.22226676 -0.24592648 0.12542824
0.04313570 -0.26880786 -0.07563575
-0.20954473 0.11564251 0.12844311
0.11218412 -0.29932067 0.12820381
0.01139730 0.23861557 0.03092464
0.05597730 -0.29744536 0.11716582
-0.06181681 -0.28428227 0.08066010
0.14691247 0.22087476 0.12604205
0.06724548 -0.27620235 -0.12660921
0.15489691 0.37777221 0.12637718
-0.04033151 -0.35860547 0.12998369
-0.14578636 -0.26709080 0.12817392
-0.07998446 0.28143090 0.07678286
0.17801237 -0.00255982 0.12133998
-0.01051740 -0.14646092 0.12417837
0.22407885 -0.05756035 0.12576912
0.17316005 0.34841090 0.13718604
0.13562399 -0.30335748 0.10420430
0.10991499 -0.31148678 -0.13610186
0.03650324 0.18204662 0.13126610
0.01289487 -0.29442942 -0.01084460
-0.04447110 0.20989636 0.10500488
-0.14873847 -0.31514341 0.09986560
-0.04842738 -0.13427222 0.13712353
0.00494410 0.00386539 0.13308197
0.07973917 -0.07169242 0.11938409
-0.09992609 -0.25354868 0.12927771
-0.03549711 0.26179418 -0.04502219
-0.11613069 0.09329970 0.13085786
0.08152384 0.33575124 0.14109918
0.14727560 -0.33335495 0.12052234
-0.17388722 0.09707986 0.13118100
-0.07725658 0.00309295 0.12692085
0.01525355 0.35279477 0.12265459
0.15765414 0.27121034 0.12408607
-0.04074509 0.28117245 -0.14518687
-0.04487687 -0.27650061 0.07450665
0.05128595 -0.31851014 0.13175356
-0.00411741 -0.20162478 0.01810465
-0.01675840 0.18478987 0.12929885
0.06184432 -0.27117032 0.05016413
-0.06506862 0.21575427 0.12021487
-0.14718118 -0.29605359 0.10667834
0.07899228 -0.19372043 0.12084121
-0.09735930 0.30057570 0.07897164
-0.00640066 -0.15341094 0.08168153
-0.02136426 0.25900334 0.12410172
0.22176154 -0.17739215 0.11055496
0.02003800 0.23165163 0.12291325
-0.10256119 0.29368141 0.09159438
-0.22491473 0.09537331 0.13384111
-0.01682588 -0.08823719 0.12112262
0.09981240 -0.04923040 0.12572080
0.06936076 -0.25468594 -0.10067992
-0.08280940 -0.32428047 0.13069196
0.02492361 0.18933533 -0.11850719
-0.09236777 -0.12714900 0.12264634
0.13935927 -0.04494638 0.15082328
0.07359221 0.22104281 0.12065712
-0.06442460 -0.37221360 0.12342914
-0.20321453 -0.08840576 0.12881377
-0.14219312 -0.12920189 0.12447135
-0.06268531 0.40571111 0.12554485
0.09674529 0.31760192 0.11687121
0.15952234 0.22971672 0.11865071
-0.14920150 -0.39182824 0.12696551
0.05597084 0.17770843 0.12255921
0.07482068 -0.02432329 0.13596460
0.08175260 0.08034699 0.12481415
0.12560120 0.22206917 0.12219217
0.02418935 0.09987105 0.13314071
0.04092969 0.23101921 0.11519159
0.05719266 0.26930049 0.12013393
0.08678363 0.03136661 0.12515146
-0.08281354 0.40431228 0.13300817
0.12846303 -0.15335968 0.12698284
-0.00571445 -0.27380925 0.12884706
-0.10300293 -0.39235586 0.13697121
0.06020079 0.10458024 0.12308297
-0.00487763 -0.02993912 0.12422975
0.11921966 -0.16961569 0.12272583
0.09484885 -0.30896184 0.12171362
0.05040448 0.01483762 0.13001451
-0.00765837 0.13185792 -0.01291440
0.00025867 0.21775773 0.02653787
-0.01310109 0.21198678 0.11745518
-0.21791087 -0.34120432 0.12266760
0.18113282 -0.08107834 0.12409143
0.03828977 0.27805647 0.12389026
0.02241710 0.22934198 0.12953572
0.05356707 -0.05891675 0.12658975
-0.18665454 -0.05093857 0.12548217
0.04643362 -0.15116864 0.02013589
0.04783673 -0.09449034 0.12606299
0.12556210 0.26624632 0.12742119
-0.10494679 -0.20073019 0.11883403
-0.11127722 0.23939633 0.13018687
-0.11226920 -0.16377866 0.11901231
-0.08958001 -0.38273767 0.12426100
0.03991981 -0.22192985 0.12455072
-0.01481272 0.12935445 0.12506612
0.14153580 0.17118642 0.12296932
-0.02169431 0.26758075 0.02676634
-0.03147588 0.29415241 0.12558000
-0.14368141 -0.29122716 0.12422553
-0.00434998 0.39405811 0.12069792
0.01952362 -0.02332246 0.12386329
-0.15292370 0.19755293 0.12066387
0.11831425 0.21556616 0.12012675
-0.08029447 -0.21002293 0.12302582
-0.03441754 0.11148567 0.11983946
0.03540504 0.16335109 0.00105921
0.18177912 -0.27105761 0.12407652
-0.15413530 -0.24651836 0.12507521
-0.02945792 -0.25994158 -0.06112062
0.06996907 -0.35843948 0.12312436
0.03831249 0.10801858 0.12726703
-0.03738318 0.29030707 -0.08761286
0.03752173 -0.38715735 0.12434949
0.22754519 0.07027122 0.11836841
-0.03490972 -0.25143617 -0.03816290
0.02358947 -0.16313010 0.12795410
0.08442017 -0.37407783 0.12672576
-0.22244914 -0.07747892 0.12478196
-0.09838323 -0.27334845 0.11706764
0.04887136 -0.27418938 0.03400499
0.20593084 -0.22378100 0.12389193
-0.12796572 -0.00120579 0.13022251
0.13170615 0.27995935 0.12618802
0.21109846 -0.11823755 0.12466068
0.14593288 0.05326787 0.11727874
0.23336366 0.24383816 0.12252574
-0.10279489 -0.25280219 0.12375888
0.07339305 0.15625645 0.13319856
-0.07438691 0.06059821 0.12476507
-0.15533243 -0.23118573 0.12017066
0.21943043 -0.11953312 0.12920503
-0.09221451 0.27607393 0.12555352
0.18501228 0.13496161 0.12265169
0.17258994 0.08106945 0.12234227
-0.21202818 -0.01806885 0.12195402
0.02651069 0.06091594 0.13588114
0.09122975 0.16155882 0.12437458
0.00945887 -0.24525742 -0.11294179
0.17132729 -0.33973414 0.12199164
0.15767895 -0.12491286 0.11932373
0.13479829 -0.34522018 0.11846468
0.15289249 0.10141736 0.12714449
0.00532183 0.15930475 -0.18127888
-0.09756031 0.03068379 0.12458580
-0.19982432 0.26989126 0.09606098
0.07639258 0.33638263 0.12153671
0.02255433 -0.13602021 0.04234847
0.16114745 -0.39049834 0.12506226
-0.08857194 0.34208944 0.12512955
-0.06440225 -0.21055201 0.12458859
-0.04056324 0.40262330 0.10345778
0.12225268 0.31123006 0.12723884
-0.00393511 -0.00120602 0.06194823
0.06352835 0.21310961 0.13290378
0.06829164 0.24430034 0.12252913
-0.22660264 0.20072044 0.12936303
-0.11689711 0.26048553 0.12489514
0.05376317 0.24520031 0.06504175
-0.10745516 -0.08174218 0.12052438
0.03268203 0.24159506 -0.06843175
-0.00379532 -0.18349755 0.05759139
0.04720141 0.26876485 0.12227365
-0.20923424 0.34427175 0.12475480
-0.01304996 -0.08082847 0.12497137
-0.10394767 -0.33149621 0.12878618
-0.04171810 -0.26350006 0.12718579
0.02767219 -0.29479519 0.14140816
0.16150014 0.22209808 0.12952857
0.17399673 -0.37620616 0.12678972
-0.21887621 0.08119278 0.11350600
-0.10632665 -0.35474956 0.12680560
0.09905455 0.31942266 0.11701518
-0.21906963 0.25814795 0.11826461
0.08439668 0.15084124 0.12144786
-0.15633811 -0.22918212 0.12257967
-0.10757660 -0.26892182 0.12271059
-0.18696311 0.16550072 0.11675507
0.04893944 0.21504839 0.12174335
0.14888132 -0.17127641 0.14882678
0.11694600 -0.29264843 -0.15029122
-0.19287947 0.20473224 0.12843712
0.09362000 0.09054933 0.12246451
0.15258560 -0.09611437 0.13031930
0.04483847 0.17567906 0.12749596
0.06692263 -0.06301352 0.12221197
-0.10983416 0.18172820 0.12066983
-0.01685320 0.17383672 -0.07745156
0.03200710 -0.17794149 0.12266257
-0.14432546 0.36602372 0.12474959
0.21924512 0.06026000 0.12525575
0.01749585 -0.37981290 0.12749331
-0.14211397 0.12080461 0.12795140
-0.04367350 -0.00848984 0.11614676
-0.04352197 0.10787153 0.12667538
0.23970345 -0.19903249 0.12409239
-0.04363783 0.41338655 0.12262516
0.21074665 0.34975767 0.13195534
-0.01163276 0.13659081 0.04417156
0.13179144 0.01763539 0.12222801
0.14906223 0.12211069 0.12172894
-0.02901223 -0.39692217 0.13427517
0.05527688 -0.41476181 0.12698552
0.03981541 -0.33328903 0.12675917
-0.00953293 -0.21042246 0.12489009
-0.13727222 -0.14947850 0.12102640
0.19802530 0.06805984 0.12991124
-0.00481914 -0.05376669 0.07474139
0.00668942 -0.19306757 0.09823553
0.09190805 0.29405200 -0.14133243
-0.18147689 -0.19847015 0.11338152
0.03588866 0.21962017 0.12299965
-0.13949017 0.35644460 0.12975028
-0.22941439 -0.15601908 0.12760358
0.15976486 -0.15946826 0.12544937
-0.07068630 -0.27766091 0.09150125
0.05353049 0.16568509 0.12110487
0.00634190 0.20333889 -0.09096420
0.10344080 -0.20542699 0.12125683
-0.01235184 0.28767458 0.13536499
0.13556066 -0.42369550 0.11726546
0.04688314 0.36206508 0.12476779
0.05508014 0.39941639 0.12401622
-0.16565277 -0.14529741 0.12121765
-0.17286372 -0.32744104 0.12225840
-0.11022928 0.25889567 0.13009073
0.05033678 -0.13043809 0.12403657
0.06813110 0.24041772 0.09866069
-0.00878165 0.06342734 0.12285542
-0.01769168 -0.08095530 0.12348177
-0.04274338 -0.31466660 -0.06977174
0.20262575 0.29157686 0.11904922
0.05636644 -0.27309644 0.12742200
-0.16312063 0.09479003 0.12352617
-0.03716763 -0.28057593 0.03876470
0.06716894 -0.29045367 0.12474975
-0.19920287 -0.25661391 0.12108488
-0.17023325 0.35700515 0.13673109
-0.05138703 -0.05982110 0.12434199
-0.16827016 -0.36295217 0.11790237
0.13643172 0.08441991 0.12551494
0.22691719 -0.13426596 0.12530090
-0.01311907 0.39347687 0.11272114
0.07272536 0.09500371 0.13668661
-0.07333229 -0.07277931 0.13793325
-0.09378751 0.29747093 0.12844960
0.07068242 -0.29730439 0.08759893
-0.20837542 -0.14524955 0.12518601
-0.14981195 -0.14600998 0.14108869
-0.01408090 -0.04050559 0.13959149
0.20603241 0.15508994 0.12127337
0.13722044 0.00414530 0.12216084
-0.11421700 0.28838605 0.06854744
-0.03078003 -0.24184808 0.12622362
0.22878179 -0.25337243 0.13222601
-0.12563466 -0.13617380 0.12521251
0.07359443 0.18122219 -0.15970807
0.04697951 0.20969714 0.12318339
-0.16942421 -0.14088222 0.13196740
-0.13106495 0.15782040 0.12178172
0.12057107 0.28197545 0.09053110
0.01072297 -0.16532229 0.12400749
-0.05955325 -0.38494635 0.12292753
0.14593193 0.08977283 0.12259594
-0.00007055 -0.01631384 0.04584600
0.06378944 -0.15846832 0.12412015
0.01944054 -0.26031178 0.11822774
0.07020408 0.05538975 0.12350787
-0.11359637 -0.19712692 0.12922771
-0.01350695 0.09513363 0.05710252
0.18179590 0.22309905 0.12130122
-0.13059248 0.31104517 0.12910126
-0.05862980 -0.29111785 0.12448900
-0.12259254 -0.21042207 0.13481852
-0.19898504 -0.11775450 0.12067898
-0.00842868 0.24198866 0.13278946
-0.21863942 0.36830020 0.12748671
0.00897523 0.23725075 -0.10657421
-0.14583141 0.15180977 0.12187122
-0.11375703 -0.27906942 -0.14827439
-0.13035128 -0.28584623 -0.14782988
-0.06154619 0.33920875 0.13245957
0.20234829 0.25088704 0.12239485
0.00314309 0.17751026 0.12729140
-0.12941575 0.23019464 0.12957111
-0.21912195 0.17866085 0.12025533
0.04910630 0.21230075 0.11536758
0.09151505 -0.33937040 0.12353807
0.01584815 0.15792342 -0.01365686
0.05981189 -0.33448249 0.12350716
-0.12636384 0.22308938 0.13244638
0.02060840 -0.23722149 -0.11183154
-0.09147080 -0.09591377 0.12607752
0.22513950 -0.37337673 0.12760510
-0.11557302 0.35818991 0.11898073
0.03718957 -0.01059139 0.12148177
-0.02471407 0.10114975 -0.00515128
0.01974461 -0.14989500 0.12255027
-0.14591885 0.41854119 0.12434488
-0.22013459 -0.40545610 0.12365799
0.04570412 0.01125803 0.12169801
0.05953850 -0.41918060 0.11381853
-0.18418474 0.10908119 0.12591216
0.16619070 -0.38083011 0.11754535
-0.01326567 -0.41955376 0.11077765
-0.08619261 0.02504523 0.12410337
-0.18567705 -0.19782585 0.12474009
-0.00501958 0.22974874 0.12956417
-0.23000513 -0.28086314 0.12742521
-0.13336249 -0.34094989 0.11103042
0.17089979 -0.10771669 0.14557342
-0.03718678 0.24837792 0.12137439
0.21340415 0.21541202 0.12054162
0.07387030 -0.17964634 0.12470368
0.13711345 0.28468269 0.12509598
-0.18045324 -0.39473858 0.12365566
-0.13251278 -0.05465325 0.12429830
-0.12813614 -0.41713554 0.12282152
0.17807558 -0.22318110 0.12446795
0.00946082 -0.25629908 -0.05836761
-0.18166953 0.15961781 0.12132513
0.17837346 0.23964274 0.12155148
0.02787925 -0.28761292 -0.01819243
0.00294641 0.16232638 0.12428837
0.17998841 -0.31344217 0.12630795
-0.21705033 0.21558857 0.12458704
-0.02018020 -0.23236631 0.12769224
0.04543382 -0.24778268 0.12636767
0.04747418 -0.36912605 0.11884746
0.13049889 -0.30163661 -0.14073521
-0.07955118 0.31471717 0.12203301
0.21708453 -0.13773225 0.12156082
0.13952979 -0.38927168 0.12682515
0.19519655 0.25276479 0.12712887
-0.11239909 -0.28387493 0.14146046
-0.16471815 -0.40041724 0.11464736
-0.01802898 0.30669600 0.05627662
-0.22487432 0.10522274 0.12999652
0.06850494 0.40459347 0.10858546
-0.00570823 -0.09139654 0.11895037
-0.01509733 -0.26262602 -0.01079172
-0.03900696 0.36484191 0.12520738
-0.10896886 0.13557160 0.12085022
-0.00190092 0.08681639 0.12028053
-0.22875109 0.00035799 0.11417066
0.22530350 0.31122696 0.12417642
0.22240259 0.11055066 0.12767154
-0.15472484 -0.20554399 0.14194120
0.04348566 -0.34800136 0.13378875
-0.06252766 0.13469389 0.12468560
0.21876514 0.41315746 0.12064877
0.20302947 -0.31427026 0.12123621
0.13800430 -0.23997699 0.14178923
-0.05161668 -0.31716424 0.12686764
0.09912302 0.31365541 0.09574640
0.07490166 0.14971814 0.11876412
-0.09269270 0.38342550 0.12160604
0.18223424 0.41044417 0.11857843
0.14531502 -0.30692333 -0.14659026
-0.01342012 0.36593586 0.14022398
0.12662493 -0.28010917 0.12643006
-0.17369778 0.21842612 0.12937284
-0.08280233 -0.28441104 0.13517585
-0.09018788 -0.10908916 0.11748338
0.02232175 -0.24810928 -0.15142277
0.00718700 0.03367668 0.12839931
0.02178266 -0.29265171 0.12501422
-0.05506585 -0.33460897 0.13100073
0.16085221 0.13100991 0.12610701
0.00088323 -0.17781773 0.12845570
0.09335108 -0.25189596 -0.12494646
0.00715991 0.10313682 0.12285065
0.03538171 -0.12481637 0.12653831
-0.03819570 0.16691449 0.12580107
-0.22046487 0.33959949 0.10574862
-0.07072942 0.34689930 0.12511329
-0.12201782 -0.01961297 0.12434494
-0.22147749 -0.39282614 0.13130876
0.10387105 -0.29693854 0.14169967
-0.00228785 -0.22586966 0.12047079
0.11434340 0.17385150 0.08462092
0.09539981 0.14586191 0.11121787
0.10589941 0.26564831 0.12268163
-0.02275808 0.27263877 0.01973180
-0.08089292 0.13486484 0.13025862
-0.08202267 -0.13161004 0.11750615
0.19432527 0.14293990 0.12188614
-0.01449740 -0.01508566 0.12706833
-0.13485788 0.31008339 0.12419329
-0.05588436 -0.34559476 0.12549374
0.00705707 -0.13902485 0.05939737
0.00720873 0.12483952 0.07146986
0.17873758 0.25159043 0.12076019
-0.07566991 0.01550215 0.12384849
0.14970401 0.36489159 0.11899093
-0.17230725 -0.22171453 0.13068578
-0.06098296 -0.23004380 0.09009600
0.02105195 -0.24169384 0.12435549
-0.15507239 0.23127806 0.12545547
-0.02537360 0.28893888 0.03028984
0.11682382 -0.34497195 0.12711202
0.21046427 -0.39464170 0.12462589
0.18871914 -0.09013914 0.12753786
-0.04249564 -0.17523584 0.12013748
-0.07354030 0.39575928 0.13454846
0.19615877 0.06802538 0.12169091
0.22503337 -0.00742004 0.13962308
-0.02120579 -0.17242903 0.12133180
0.20156358 0.17890508 0.10854510
-0.04061827 -0.12920804 0.12548353
-0.01741980 -0.24677053 0.12536366
-0.09388480 -0.28767422 0.11845288
0.16967885 0.35793829 0.12208296
-0.06670022 -0.29257551 -0.13720131
-0.09073047 0.06539942 0.12462569
-0.03654159 0.26070204 -0.00967393
-0.13405061 -0.09438469 0.12709200
-0.11352576 -0.04356194 0.12012545
-0.12492035 0.07525211 0.11816451
-0.13158661 -0.41429934 0.11786254
-0.09054165 0.00063908 0.12034632
-0.12542284 0.38678950 0.12810916
0.19880414 0.17630462 0.12527989
0.05911714 0.06652611 0.12724081
0.19865680 -0.40013567 0.13577503
0.06821369 0.00340826 0.13140172
-0.10054470 0.12149922 0.12628797
0.03155298 0.11336742 0.11951303
-0.05580378 -0.26237178 0.15136510
-0.20866415 0.06802082 0.12450542
0.03222756 0.36962211 0.12914982
0.05968312 -0.15351124 0.12708382
-0.07448433 -0.31727043 0.12339535
-0.04379362 0.32819647 0.12506622
0.15904507 0.03070758 0.13056488
0.01574402 0.08775710 0.11787966
-0.07120912 -0.40067044 0.12385603
0.08318438 -0.22248179 0.12411029
-0.09731285 -0.14118060 0.12214373
0.05269564 -0.26831308 0.12508680
-0.01688157 -0.12791628 0.11967373
-0.14130352 0.03350982 0.12111159
-0.02757084 -0.27473390 -0.01399361
0.21448509 0.38670531 0.11136872
0.22176717 -0.12071192 0.12820154
0.02870465 -0.25654441 0.05188403
-0.01884245 -0.10473977 0.12326425
0.23035732 -0.19817804 0.11907531
-0.07453001 -0.32005540 -0.12260774
0.08383618 -0.30646092 0.12054818
-0.18746862 0.21325269 0.11992171
-0.01296750 -0.21593514 0.12940851
0.01565398 0.11300703 0.00946631
0.01874468 0.19356501 -0.13678402
0.01105161 -0.24745037 -0.11898428
0.06582130 -0.28831676 -0.12557916
0.14195243 -0.32368958 0.12430549
0.23046644 0.22187483 0.12211512
0.20803531 0.13143188 0.13095829
-0.18011850 -0.29808837 0.12780996
-0.01334025 -0.29938620 0.12672633
-0.02565392 -0.03653593 0.13189030
0.15987380 -0.07283409 0.12284548
-0.08024447 -0.32052243 -0.15761274
0.05986219 -0.10435096 0.12499113
0.01934247 -0.24154602 -0.01094575
-0.05109386 0.06319819 0.11962138
-0.10121405 0.29059058 0.12420987
-0.23018003 -0.00229473 0.12573171
0.11790107 0.27226335 0.12315062
0.02888213 0.36274856 0.12280741
-0.07818459 -0.02744176 0.11731297
-0.00445449 0.26749441 0.12735137
-0.00302096 0.38730311 0.11898101
0.10631238 0.41467923 0.11676982
-0.09325019 -0.31738055 0.10868341
-0.14330751 -0.18375641 0.15455157
-0.22567979 0.20252261 0.12640752
-0.06469592 0.30287984 0.11911755
0.15098955 -0.30254743 0.12401567
-0.09638513 -0.27676815 0.13877340
-0.15694043 0.16160643 0.11566082
0.22933121 -0.14295192 0.11513054
-0.01906076 -0.02694942 0.12432805
-0.02292742 0.13901030 -0.10470435
0.23054466 0.07271258 0.12722836
-0.09465925 0.34241608 0.12173764
-0.03941669 -0.37197918 0.12484144
0.10369465 -0.13023070 0.12146932
-0.07868913 -0.40799916 0.12449801
-0.11657564 0.26551762 0.09325848
0.11572781 -0.41825306 0.13312262
-0.01381291 -0.17177621 0.06550490
-0.00122847 -0.10126369 0.07870551
0.15355554 0.33648258 0.12808816
-0.08980046 -0.28559434 0.13033277
0.21856582 0.21669811 0.11130058
0.07214168 -0.30241615 0.05564983
0.11100495 -0.29516828 0.13476893
0.21343124 0.00972108 0.12314983
0.05256303 -0.23475045 0.12323149
0.22672808 0.20021632 0.12154012
-0.05348806 0.29586512 0.10032120
-0.07693666 -0.12650353 0.13848515
-0.06398613 0.13968796 0.12538816
0.06529203 -0.28030229 0.08326449
-0.12432674 0.22294560 0.12372329
0.14678650 0.37844646 0.11872090
0.00223020 0.16796187 0.04206830
0.06028941 0.28453398 0.12566468
0.04488197 0.26932400 -0.09782873
0.22963321 0.09533216 0.12530270
-0.00193414 0.05529273 0.02579813
-0.08008978 -0.30014008 0.09374291
-0.15980363 -0.17126924 0.11671013
0.02365425 -0.36951116 0.12717605
-0.06840703 -0.23645155 0.12933080
-0.08431454 -0.31192181 0.12216747
-0.11010931 -0.34242094 0.12453926
-0.18899764 0.12756541 0.11883974
0.10084790 -0.29552388 0.09709714
-0.02785395 0.24453738 0.05593234
-0.10047173 0.39232159 0.12842062
0.06688298 0.34964496 0.11249870
-0.06564117 0.05177609 0.13533841
-0.02982774 0.00395721 0.12196626
-0.09006457 -0.28246874 0.09830382
-0.01803340 0.08043157 -0.04362628
0.03198577 -0.27897966 0.11139869
0.03567239 -0.09926662 0.12384467
0.16674161 0.39487273 0.12759438
-0.07117145 0.21700439 0.12455648
-0.07119022 -0.21825808 0.12732877
0.00949034 0.24986564 -0.00685218
-0.05391750 0.17692715 -0.09583170
-0.08108041 0.29239339 0.12473401
0.01991482 -0.02430174 0.12279274
0.03533777 0.41540885 0.12257768
-0.03570862 0.17822319 0.01236109
-0.06415943 -0.26110348 -0.10008863
0.04232600 -0.41648033 0.12474291
0.12543508 -0.18719012 0.12504002
-0.07035382 0.26811996 -0.15659291
-0.21895951 -0.09065436 0.12816982
0.01885711 -0.29244912 0.03380276
0.09213453 -0.32524455 0.11905046
-0.05597121 0.42802185 0.11382604
0.10982698 -0.09448435 0.12206433
0.08973664 0.33362436 0.12259918
0.01653046 -0.21095140 0.12840335
-0.22056283 0.22638184 0.12553567
0.08009348 -0.41025832 0.13052811
-0.08319366 -0.28523028 0.06950894
-0.17039673 0.25683063 0.12438940
-0.06220835 -0.10285979 0.11967597
0.11330569 0.29046708 0.09683890
0.18386874 0.12012226 0.12178613
0.13556269 -0.30397725 0.12387635
-0.15350370 0.40237659 0.10909623
-0.23022553 0.01286113 0.12117689
0.19536784 -0.05999555 0.12445110
0.00065258 -0.29315758 0.13678108
0.13141926 0.26675159 0.11976675
0.05647353 0.30335781 0.07738424
-0.13660380 -0.26345098 0.15311722
-0.18372305 0.23798767 0.11655026
0.19881698 0.23578812 0.10853866
0.17488769 -0.14412488 0.12321153
-0.12125656 0.11747020 0.12329754
-0.08418712 0.41525972 0.11449794
-0.14914612 0.37834069 0.12381187
-0.22812271 0.27288112 0.13203204
0.12210032 -0.04166952 0.12369665
0.01405023 -0.26728791 0.12095782
-0.15476441 0.24245903 0.12622318
0.00973890 -0.36760181 0.12579353
0.05608507 0.05023454 0.11781713
-0.21631019 0.28882316 0.12368920
-0.11999370 -0.21791302 0.11924119
0.22635572 -0.09749088 0.12342352
0.01942003 0.18157576 0.11887825
-0.22091658 -0.32552642 0.12646215
-0.21212649 -0.35762972 0.12811780
-0.02156051 -0.36610198 0.12494940
0.03701157 -0.38271904 0.12911625
0.22814809 0.08184122 0.12253661
-0.18683136 -0.16096205 0.11389446
0.17911768 0.06250452 0.12698425
-0.01641577 -0.14873871 0.12450465
-0.04047300 0.41810706 0.12551573
0.12901983 -0.04048331 0.11998238
-0.00643520 0.07560781 0.09352227
0.19083883 -0.22359049 0.12373047
-0.02384361 -0.16809891 -0.16457945
0.19350526 -0.31681788 0.12179225
0.11400583 0.24661177 0.12233617
0.02695628 -0.15572830 0.11921144
-0.08224234 -0.28043461 -0.15649697
-0.03619301 0.15923002 0.12123451
0.00102318 -0.03011196 0.11854583
-0.01779320 0.14991628 -0.02617045
-0.04438715 -0.26615298 -0.09886050
0.15589155 0.06040027 0.12691922
0.00181541 0.17981672 -0.18894991
0.11577126 0.08590972 0.12352130
-0.05748759 0.26945299 0.12478904
-0.12007231 -0.16607365 0.12585248
0.13269553 0.10671958 0.11740777
-0.18796889 0.40535116 0.11797182
0.00036871 0.12693629 0.05224445
0.05301468 0.33307829 0.11924210
0.07733490 0.03383714 0.12451826
0.04075302 0.05556013 0.11770236
0.10209594 0.12706468 0.12547898
-0.17260598 -0.23874031 0.13025731
-0.14767927 -0.34310430 0.12553200
0.00653631 -0.35205024 0.12986112
-0.17450570 0.25902212 0.12003521
-0.12056982 0.20080951 0.12637568
-0.18600629 -0.08157127 0.12486369
0.03836444 0.10483511 -0.14966488
0.06262890 0.28922698 0.02864339
-0.07283031 0.34214053 0.13324520
0.22680871 0.14170526 0.11349544
-0.08898170 -0.05916426 0.18592793
0.17826842 0.40164787 0.12338774
0.07724500 -0.25897551 -0.10979454
-0.15112028 -0.41020158 0.12671186
-0.22286770 0.21032676 0.12230265
0.14418550 -0.14606380 0.12359311
0.12838918 0.14537729 0.11965703
-0.06067092 0.29795137 0.12082416
0.21937187 0.34864119 0.12135307
-0.17077756 -0.19598238 0.12450312
-0.03495535 -0.30933446 0.12370463
-0.01030701 0.11301890 0.12147924
0.06072421 0.11990635 0.09539552
-0.02632812 -0.27498153 0.12586048
-0.00705907 -0.04386144 0.02475990
-0.05622423 -0.26655123 0.00561392
0.12656981 -0.28450438 0.12263312
0.09285603 0.18024695 0.12320715
0.14145291 0.16989335 0.10202895
-0.07872426 0.40019202 0.12690251
0.03699394 -0.41767329 0.12459524
-0.14259827 0.05038374 0.12879556
0.04672495 0.27183059 0.00968344
0.04803345 0.27367258 0.12804861
0.10209584 0.28514791 -0.14200386
-0.10038357 -0.33242404 0.12577708
0.06204815 -0.10633036 0.12469762
0.01095284 -0.03785411 0.12516849
0.15149036 -0.28095090 0.12343745
0.12157436 -0.00235235 0.12022512
-0.13321571 0.22096592 0.12229276
-0.00680928 0.26993579 0.11951923
0.04372500 -0.19766410 -0.16721059
0.04203815 0.10877555 0.12579899
-0.06299502 0.36302033 0.13051388
-0.11712898 0.25880483 -0.14678338
0.19927180 -0.06162827 0.12549341
0.08245946 -0.28104949 0.13510999
0.10140692 -0.40693578 0.11348045
0.04150064 -0.31176645 0.12445065
-0.13752347 -0.39001513 0.12904094
0.04782799 0.22540736 0.12203187
-0.15027100 0.24929826 0.12558009
-0.00591016 0.09561382 0.11795859
0.10832603 0.29044768 0.09770469
0.21764939 0.34864673 0.12592714
-0.03038219 0.11514615 -0.12664524
-0.12566835 -0.29313806 -0.15082531
-0.16737173 0.27805749 0.12506561
0.02071988 -0.40156621 0.12964180
-0.10978788 0.22035462 0.12062173
-0.04494233 -0.03436219 0.13059169
-0.17185828 0.01110783 0.12175255
0.10169013 0.36490837 0.12505397
0.10238915 0.14262107 0.12445755
-0.11498117 0.32665712 0.12893106
0.03320675 -0.13944450 0.12078767
0.20026067 -0.15616634 0.13054565
0.03474244 -0.17145394 0.03422946
-0.07447643 0.16507968 0.12588793
-0.08255836 -0.25658578 0.12420747
-0.05313119 -0.06728134 0.12407325
0.17381734 0.10604277 0.12572463
0.18262753 -0.04746263 0.12801500
-0.12105865 0.08973891 0.11930231
-0.00265615 0.37340689 0.13528997
0.22827291 -0.01287666 0.11796623
0.01734371 -0.24435538 -0.07837732
-0.03273799 -0.21285777 0.12786803
0.17469366 -0.05991006 0.12707512
0.09396452 0.31935376 0.12178297
0.21522671 -0.36456841 0.12779169
0.04057932 -0.27589208 0.12615862
0.02064602 0.41639978 0.11477869
0.15520079 -0.27102759 0.12219311
-0.04965711 0.03801310 0.13633701
-0.02812475 -0.18897423 -0.02485170
0.19698155 -0.27273822 0.13662519
0.22439805 -0.06457452 0.12277327
0.09643136 0.22923613 0.12246756
-0.18626177 0.05001552 0.12893534
-0.02796736 0.23201291 -0.06254620
0.11171549 -0.26455709 0.14000009
-0.21783662 0.40261918 0.12532894
0.03790367 -0.40230680 0.12888281
0.19839725 0.16761294 0.12477862
-0.00950892 0.13272224 -0.03967781
0.12849884 -0.38404495 0.12684131
-0.00100033 -0.18642804 0.12263809
0.01178348 -0.05525038 0.14233930
0.02153391 0.18791641 0.06605786
0.14088593 0.00675252 0.11968376
-0.13358431 0.06759814 0.12195644
0.04147855 -0.38949895 0.12657252
0.19619025 0.01461565 0.12228101
-0.05173583 -0.37688467 0.13593468
-0.12478133 0.26447365 0.12234300
0.02210476 0.21305534 0.12023818
0.16710865 0.28549814 0.13072935
0.19404300 -0.16490352 0.12583531
0.17407894 0.27508128 0.12516494
-0.13698703 -0.28965360 0.12473352
0.08794200 -0.01393558 0.12371238
0.22609252 -0.27103856 0.12474281
0.07450745 0.35735554 0.12137813
-0.19396445 0.36977917 0.13808788
0.04618242 -0.28056526 0.04021604
0.11005622 -0.17847490 0.12474739
0.13940093 0.21029580 0.13164593
0.14208785 0.16038969 0.12077093
0.19940209 0.13245158 0.12259743
0.05107777 -0.24550736 0.09531863
-0.15778783 0.09017448 0.12355651
-0.00540909 0.17119095 -0.09537844
0.10583017 -0.07595433 0.13051757
0.17972587 0.18668558 0.12307143
0.02824110 0.25833046 0.03295201
-0.03103153 0.13361865 -0.16912422
-0.11535729 0.30674824 0.12304220
0.15790364 0.39847285 0.12704416
-0.14235993 -0.38819778 0.12148516
0.01566108 -0.04120361 0.12205269
0.18059649 0.31892574 0.12542437
0.14140861 -0.25731710 0.12140051
0.08756153 -0.22866136 0.12793830
-0.20989507 -0.07056780 0.12195273
0.13826682 0.31438330 0.08863843
-0.10766669 0.30058798 0.12712665
0.02371022 0.19526066 0.06521583
0.14549614 -0.35536063 0.11963447
-0.04011592 0.22526482 0.12536976
0.19287893 0.35323596 0.12985152
-0.14790803 -0.39688528 0.12687825
0.07848581 0.42294425 0.12214474
-0.08001003 0.25529969 0.07743555
-0.01403506 0.22417082 0.03538346
0.08534805 0.32821983 0.12348467
-0.00581820 0.33373564 0.12193667
-0.06575276 -0.09671295 0.12704319
-0.21523067 -0.36886728 0.12721786
-0.08274636 -0.27017772 0.12043016
-0.14520594 0.37501794 0.12888229
0.17800097 0.01298830 0.12742688
-0.02812730 0.27882162 0.12091371
-0.01669126 0.16993928 0.12412555
-0.07224922 0.37841731 0.11302160
0.13912904 -0.29679966 -0.15289731
-0.19536608 0.06107330 0.12042767
-0.16953218 0.13925320 0.13020225
0.22849153 -0.04642845 0.12103757
-0.06581663 0.36401403 0.12236717
-0.17411955 0.10988105 0.12204136
-0.06242404 0.41103381 0.13298270
0.05107961 0.13711801 0.11786499
0.01907714 0.00769852 0.12630609
-0.22004351 -0.36500758 0.11843611
0.04344837 -0.27680749 0.06421018
-0.14866221 0.19391860 0.12313775
-0.19092968 0.30952168 0.12399638
-0.12666342 -0.37611276 0.12521456
-0.19817938 -0.27657753 0.12401097
0.22804022 0.18158057 0.11682335
-0.01036685 -0.16449657 0.12981097
0.03504178 0.37761047 0.12470387
0.01937462 -0.14876609 0.11619519
-0.16782880 0.34976134 0.11008177
0.19797230 0.12737487 0.12315934
0.04160965 0.29806811 0.12408318
0.17710528 0.31700480 0.09489563
0.05794301 -0.17387028 0.12209290
-0.10846362 -0.32011244 0.11905896
0.11222363 -0.39032087 0.11247463
-0.09341753 0.30178592 -0.14596526
0.00067451 -0.42029554 0.13008735
0.19863072 0.41405424 0.12315224
0.04530920 0.29705358 -0.17318267
-0.06539536 0.14116096 0.12177066
0.07010759 -0.42114893 0.12803307
