1369
0.18095149 -0.04653698 0.11192439
0.00334254 0.22722875 0.07617811
0.30126202 0.18117540 0.27621576
-0.25750270 0.18175533 0.10463603
-0.25385094 0.28796273 -0.09610873
0.29793233 -0.10287421 0.07832483
-0.12014015 0.27568498 0.10732666
0.09356622 0.00885623 0.11024161
-0.09416311 0.05904844 0.11187157
-0.13409546 0.05292743 0.11171617
0.29367155 -0.29206958 -0.08798529
-0.08614757 0.25534135 0.10440923
0.20488973 -0.17141488 0.11748128
-0.17827694 -0.14981744 0.10665835
-0.01409381 -0.08968963 0.14468029
0.21394707 -0.04828221 0.11844547
-0.30724874 -0.32767040 0.03342306
-0.07695795 -0.19460836 0.13209990
-0.06548414 -0.00678820 0.11131203
0.01481135 -0.37801269 0.12212618
0.29296753 -0.22970204 0.09231859
0.28210196 0.28730351 -0.00983172
-0.00964112 -0.12560183 0.11740264
0.23973806 -0.30705538 0.06693296
-0.03836974 -0.13271651 0.12117438
0.09517010 -0.33316767 0.10590949
-0.31498840 0.12173483 0.11393303
-0.22703521 0.13414438 0.12091360
-0.00444400 0.26291156 0.09075584
0.27189234 0.02688529 0.10387830
-0.17311619 -0.22594355 0.08897325
0.15263131 -0.15378159 0.10814285
0.14576808 0.17111306 0.09311404
-0.19332054 -0.32432052 0.09958045
-0.13874142 -0.21398395 0.11983864
0.03068825 -0.26855996 0.12064682
-0.15873565 -0.40605402 0.09691054
-0.11179213 0.24604493 0.10399254
0.04142545 0.00017812 0.11811206
-0.34354419 -0.17695299 0.10379183
0.13491088 0.21521977 0.11436048
0.33553541 -0.26829353 -0.04629332
-0.15157059 -0.05706652 0.11683816
0.02636596 -0.09300151 0.10903933
0.20429800 -0.14061213 0.10990554
-0.00442564 -0.05059575 0.14132112
0.07902236 0.21236214 0.08646749
-0.13123967 0.24734157 0.09256238
0.26916260 0.35853279 0.09207680
0.20763856 -0.15717392 0.11429269
0.08991084 0.12947194 0.10839774
0.18637094 -0.25851160 0.11490285
-0.31291032 0.04536524 0.04491977
-0.02938006 -0.25164306 0.10851141
-0.09674352 -0.13649353 0.11785038
0.16512313 0.05685826 0.11445677
-0.03896802 -0.00573610 0.12291321
0.22092283 0.10921489 0.11007217
0.18124793 0.08904577 0.12194660
-0.29234490 -0.30937561 -0.00827765
0.07681309 -0.32532230 0.09902126
-0.20458362 0.12918204 0.18684018
0.09084150 -0.02057665 0.10289991
-0.29613078 0.01807166 0.10136437
-0.10490914 -0.04951232 0.11610512
-0.28977868 0.20293745 0.07337079
-0.16453481 0.08421087 0.12953430
-0.29908329 0.15927279 0.26876256
0.00152030 -0.31074551 0.10378896
-0.27485573 -0.27539688 0.08526787
0.10902412 0.23504026 0.10148954
0.09259112 -0.00841856 0.10319649
-0.19447365 -0.12435526 0.10615914
-0.22098792 0.07103771 0.11264718
-0.40776178 -0.16297513 0.15346763
0.02198379 0.06674582 0.11507140
-0.04684418 -0.14931452 0.10627643
0.21998739 -0.10202523 0.10941703
-0.13555156 -0.34948781 0.09172933
-0.22001758 -0.33539698 0.05951384
0.16473398 -0.24253803 0.11371578
-0.24046107 -0.18401974 0.10328867
0.25027579 -0.26857188 0.12374590
-0.11686473 0.25674075 0.12335233
0.16492015 -0.19352172 0.08958732
0.23033082 -0.11524218 0.20100278
-0.09340218 -0.14928329 0.12204395
0.07925044 -0.18389292 0.10880058
-0.07330553 -0.17586276 0.17533490
-0.17139050 0.22650066 0.12298615
0.12092198 -0.15472682 0.10246696
-0.20830795 0.01413707 0.12147387
-0.09320331 -0.20705700 0.22886063
-0.28563747 0.23722416 0.09114140
-0.26455492 0.25477165 0.10444731
-0.15558049 -0.04818929 0.11546757
0.00573866 -0.11198878 0.11148479
0.23399484 0.07181450 0.12904482
-0.16114295 0.31589800 0.10226159
0.10825957 0.34534395 0.11881691
0.24331088 -0.18797049 0.10854874
-0.21073325 -0.10397288 0.11733265
0.33120304 0.17386554 0.11429320
-0.25769791 -0.25934875 0.12026455
-0.08017745 -0.32970929 0.08325804
-0.22682723 -0.14923367 0.09043724
-0.09180343 -0.04533768 0.11862390
-0.13404062 -0.03204443 0.12027420
-0.21889833 0.07327171 0.11299355
0.16262552 0.28205380 0.11237443
0.30677208 0.17442216 0.09582337
0.24782887 -0.08513626 0.13024879
0.25170860 -0.09281608 0.17907466
-0.56394356 0.28687751 0.07963391
-0.02185920 -0.06748752 0.11657959
-0.27803004 -0.26592916 -0.03319507
0.13941997 -0.14826138 0.12264539
-0.27453938 0.24429771 -0.00349280
-0.10462347 0.35573184 0.10532291
-0.24623132 -0.28436181 -0.02830601
0.15610956 0.16214320 0.09957033
0.09165967 -0.18737015 0.11263935
0.05155328 -0.24580660 0.06494359
-0.21472636 -0.16664000 0.10915473
0.26214451 0.10900902 0.12852004
-0.11452794 -0.13854218 0.11462474
0.00866417 0.03911242 0.11649765
-0.28313923 -0.27137217 0.00013724
-0.15214631 -0.12110981 0.12347580
0.16854087 0.14812186 0.10965711
0.30373007 0.08058262 0.19384247
-0.22482497 -0.18246901 0.09975100
0.18175875 0.14224119 0.12925982
-0.16819620 0.10608938 0.10185739
-0.22771037 -0.14351393 0.11423520
0.28544688 0.27183804 0.01282009
-0.39621085 0.22532631 0.02519277
0.11569837 0.08964317 0.11473031
0.21794626 -0.18959051 0.11814798
0.01235942 -0.14099409 0.12312272
0.19350538 -0.03084383 0.10790631
0.24987227 -0.12656620 0.11975171
0.16323155 -0.00447956 0.09188005
-0.00195544 -0.24775918 0.11916317
-0.07661784 0.01016437 0.11037502
0.04298089 -0.18328665 0.11176600
-0.18048084 0.14299235 0.11745655
-0.20470688 -0.06398013 0.11435063
0.18436269 0.15141098 0.11324188
-0.30287260 -0.18318433 0.09478437
0.30363581 0.20012745 0.01450159
-0.04518864 0.32556826 0.09393943
0.27782702 0.27366528 0.08422537
-0.46630567 -0.24561252 -0.06542512
0.07350687 -0.01750042 0.10082926
-0.16270150 -0.05958407 0.09976412
0.26193863 0.21592537 0.10456011
0.17219403 0.01764388 0.12013947
-0.00299777 0.09989387 0.09796259
-0.18855566 -0.00710180 0.10852093
0.12763190 -0.28186801 0.11032121
-0.24192770 0.29019660 0.04911444
0.05769797 -0.14804463 0.17001286
0.09314035 -0.28467128 0.11313692
-0.41533095 -0.26945528 0.29431698
0.06150989 0.22456905 0.10613452
0.06283096 -0.29344299 0.10235451
0.02275916 -0.18987463 0.10465667
0.26820794 0.13574561 0.11006357
-0.05815225 0.23918700 0.10573252
0.20025423 -0.20964667 0.09994185
0.11559498 0.16171004 0.11522219
-0.26386216 -0.26190674 0.10801306
0.09373908 0.16842113 0.11541350
-0.22521612 0.18130648 0.11543280
0.15299942 -0.04882961 0.11096904
0.06899362 0.18319406 0.10795429
0.03113715 0.13901807 0.11959421
-0.16561362 -0.14964640 0.10982712
-0.31491011 -0.12519564 0.05715626
-0.33631903 0.07766994 0.08857737
0.00230581 0.13425685 0.11555500
0.23823726 0.22602290 0.10169404
-0.18224454 0.31604841 0.10008916
-0.24743144 -0.05093856 0.11671358
0.03910495 0.25868079 0.10448277
0.14538953 0.20488271 0.10706805
-0.05614416 0.09252483 0.10887481
0.27171618 -0.19620100 0.09755944
-0.15631960 -0.23030147 0.11706564
-0.24110912 -0.12467885 0.12429933
0.28748882 0.21263158 0.01143596
-0.12714045 -0.05665473 0.11168508
0.06924428 0.00571237 0.11073381
-0.02336442 0.08982159 0.18048820
0.19084451 -0.28624970 0.11590940
-0.26158601 -0.31997037 0.02250037
0.10123911 -0.32829410 0.11268221
-0.36939821 -0.02257298 0.06510439
0.26884007 0.26928249 0.04558244
-0.05618723 0.06631333 0.10227466
0.18347895 -0.19867742 0.09403981
-0.18165112 0.34237045 0.09798922
0.19381267 0.30855697 0.11381738
0.22273093 -0.22416827 0.09839877
0.12927736 0.26559538 0.11463861
0.26943254 0.19017427 0.22704343
-0.28335801 0.31534022 0.05374862
-0.19735637 0.13967654 0.11598299
-0.18386534 -0.07741175 0.10989423
0.30364570 0.24662749 0.04756033
0.22171375 0.33589754 0.11087103
0.32006949 -0.28909564 0.03594720
-0.15648842 0.29853222 0.07360387
-0.27104661 -0.23385501 -0.09358670
-0.24874395 0.27649987 0.10450304
0.17705275 -0.12959224 0.11434735
-0.00105030 0.35611364 0.11042352
0.07739499 -0.11785189 0.11250999
0.28871009 0.02332748 0.09931710
0.37132323 -0.23144831 -0.07094889
0.23210151 -0.26142520 -0.06818037
0.01612316 -0.31941736 0.09065746
0.10051805 -0.17206877 0.11513085
-0.02949453 -0.01266252 0.11572386
-0.22198467 0.15607339 0.09809022
0.07231529 0.04815060 0.11242337
-0.26995447 -0.25648779 0.08973914
-0.23501934 -0.25315556 0.11634150
0.25081390 -0.07013189 0.11771726
0.26525444 -0.25259051 0.03402762
0.02211792 0.33965206 0.09469291
-0.04194978 0.23772198 0.10752968
0.20720255 0.29884356 0.08266117
0.01183854 0.32751051 0.11436129
-0.17137063 0.03981287 0.11951888
-0.06118456 -0.34705842 0.10090981
0.02288517 -0.32443643 0.13262188
0.03725185 0.09057251 0.11466818
0.11059815 0.30832970 0.05909928
-0.12121504 -0.17325637 0.10978571
-0.30066657 -0.16551131 0.06415785
-0.06638753 -0.14556995 0.11417568
-0.29476383 -0.00382145 0.11756372
0.10532570 -0.05187880 0.20336129
-0.00189050 -0.16951308 0.11652867
-0.19909519 0.09057310 0.11539681
0.20424515 0.21004017 0.10494104
-0.20293871 -0.11037823 0.10906465
0.27149600 0.31014344 -0.06590168
-0.06752224 -0.29066533 0.07438382
0.10357134 0.27214164 0.10931911
-0.00344899 0.07956666 0.10868289
0.28352460 0.10142595 0.11750831
0.02872116 0.06449921 0.10169902
-0.17241147 -0.08357000 0.11705607
-0.13455451 -0.04017576 0.11867543
0.32027763 -0.10611493 0.09441127
-0.05716810 -0.23818374 0.10483989
-0.27790892 -0.28372964 0.03629649
-0.05042517 0.19458444 0.11888217
-0.18728048 -0.06077871 0.11984438
0.23829629 0.20368044 0.08985684
-0.21337132 -0.27649707 0.12152898
0.24782449 0.30794841 0.10974541
-0.26936659 0.03398209 0.12070781
-0.02426893 0.36108595 0.10563222
0.08480487 -0.15098338 0.11105200
0.28100306 -0.00758816 0.11776067
0.08525715 0.02031408 0.13124667
0.03351137 -0.26303297 0.11778396
-0.27129021 -0.30997795 0.01000353
0.14889583 0.27404740 0.11547135
-0.19678625 -0.05698787 0.11245614
0.24865931 -0.24496917 0.10146841
-0.06944425 0.31431913 0.11799751
-0.08623391 0.16502227 0.11466838
-0.17908069 0.17580362 0.10689772
-0.31844130 -0.26862589 0.11345584
-0.09905824 0.21442175 0.11128598
0.27824062 0.32607341 -0.00122068
0.12105356 -0.04230542 0.10278131
0.12382279 0.21616191 0.12057063
-0.08849302 0.16438332 0.11156990
-0.09298696 -0.08118004 0.11728897
0.00847704 -0.19243346 0.10612080
-0.32488266 0.18697169 0.21554267
-0.32115051 0.35364547 0.06362779
-0.25665110 0.27792680 -0.00829491
-0.10533993 0.18584466 0.09110394
-0.18015556 -0.23776740 0.10929124
0.31725988 -0.03296596 0.08883272
0.03187291 0.16516612 0.09727314
0.13415545 -0.03841352 0.10884960
-0.30224609 -0.29721901 -0.10262597
0.16767173 0.07603004 0.10346876
-0.17897959 0.26884824 0.07911059
-0.17492872 0.17829183 0.11000431
-0.07078280 -0.27227011 0.11569022
0.19779122 0.19050641 0.11463878
0.12091634 0.16209969 0.10684884
-0.16539995 -0.13165677 0.11174010
0.09970737 0.11641636 0.11357944
0.22950685 0.21449676 0.10937411
0.18279071 0.03743700 0.12051420
0.12677261 -0.36209568 0.09697730
-0.15606585 0.00230157 0.12045007
-0.20283899 -0.22936918 0.12711892
-0.27240315 -0.06185276 0.11151912
0.22755362 0.04931525 0.11550654
0.09621207 -0.09175908 0.11218462
-0.30907586 0.01100938 0.03132895
-0.17766136 0.20428436 0.11546487
-0.27256075 -0.29839012 0.00049300
0.43030691 0.04382855 0.02987027
0.09763692 -0.16929896 0.10581215
-0.16517328 0.05751261 0.11390235
0.16534340 -0.23083003 0.09870325
0.30628598 -0.10340558 0.06532238
-0.20893568 0.03689262 0.11319330
0.27814686 -0.02676794 0.00400481
0.22434366 -0.27080306 0.10470706
0.10307818 0.02927769 0.10863934
0.12444639 -0.19839151 0.09494935
-0.04125716 0.08153255 0.09536551
0.26280972 0.23694259 0.11218601
0.20652185 -0.06998428 0.09836178
0.18028270 -0.17177798 0.10842055
-0.18164489 -0.11752793 0.09899435
-0.08331568 0.18573262 0.11640806
-0.14849330 0.29581863 0.10680676
-0.10778699 0.14079159 0.11499748
0.04727133 0.30662769 0.09649078
0.05793723 -0.18876287 0.10998163
-0.04954608 0.23097412 0.13220580
0.17314970 -0.05559467 0.10709450
0.03526755 0.20937198 0.10808909
-0.04029614 0.28298330 0.10483430
0.07865328 -0.08630136 0.10849784
0.14155197 0.00610943 0.10697430
-0.04796925 0.18882686 0.10026956
-0.07515107 0.06443398 0.11578660
-0.02967395 -0.05981902 0.11694222
0.14089364 -0.32845598 0.07857762
0.08404467 0.34988382 0.08839722
0.32131520 -0.21145624 0.21649364
-0.11696149 0.07465903 0.11995506
0.09592867 -0.08039977 0.12208939
0.25082892 -0.25688547 -0.08265951
0.01477684 -0.27120885 0.09274052
-0.17372704 -0.36039716 0.09521676
0.00142816 0.21081865 0.11409610
-0.09313023 0.31496257 0.10985295
-0.00669922 -0.16974054 0.10841081
0.03800602 0.05918703 0.11771167
-0.01539179 -0.20195824 0.11388767
0.10623284 0.30790982 0.08877051
0.14996356 -0.29633254 0.12084605
-0.22976506 0.28024265 0.09220938
-0.26364708 -0.26465067 0.04043891
-0.05391271 -0.37639463 0.12265097
0.25716650 0.01195222 0.11482933
0.28830516 -0.26620001 -0.07042293
-0.14379965 0.17389794 0.11511244
0.16638164 0.29554826 0.11525899
-0.25018528 0.21191427 0.07028028
-0.31976154 -0.01316477 0.09214213
0.47219560 -0.20640877 0.30252430
-0.21958372 0.12060074 0.11966401
-0.21498841 -0.30167419 0.07728937
0.16798376 0.19403119 0.09793166
0.07971051 -0.25559628 0.10964416
0.18304853 0.05356850 0.09720674
0.25864893 -0.06306845 0.11392550
-0.30335641 0.11918829 0.05614512
0.27868214 -0.16716696 0.05311869
0.04984799 -0.17525691 0.08583788
-0.30130324 0.28954571 0.13223588
-0.23206361 -0.05757111 0.12003938
-0.02589685 -0.01085387 0.11590955
0.06979078 -0.35055670 0.10215889
0.35818684 -0.10973494 0.29236457
0.31042945 0.00554200 0.09349453
-0.16964397 -0.12811024 0.11544026
0.08548871 0.22046532 0.10962643
0.03060555 0.25601974 0.09738876
-0.11013259 -0.12631619 0.09722569
-0.09932385 -0.22623302 0.11564425
0.09477952 0.26813772 0.10651193
0.27182209 0.27183014 0.00945622
0.04848487 0.23867890 0.09376088
-0.32418549 0.00305566 0.04649027
-0.10037558 -0.03464687 0.12583581
-0.09615166 -0.04171574 0.12219995
0.08096127 -0.24597649 0.11716501
0.30641067 -0.31132188 0.06185103
0.30712402 -0.03232816 0.08179842
-0.17904159 0.21386385 0.11645395
0.00282079 0.00030734 0.11028139
0.00238287 -0.26286700 0.11707222
0.12182263 0.18256354 0.10447279
0.28498429 0.18245015 0.11159917
-0.16882813 0.20478410 0.12074256
0.11330692 0.09702450 0.11436518
0.16017509 -0.01072941 0.10070293
-0.10382400 0.02125165 0.11254153
-0.25300267 0.06369647 0.11221637
-0.02783054 0.29147708 0.11285852
0.00188361 0.07840025 0.10626963
-0.06062644 0.29575887 0.08789564
0.29343086 0.18435690 0.12577042
-0.04399942 -0.17267430 0.10884000
-0.13031384 -0.05279632 0.12084074
0.15317556 -0.34743711 0.11005040
-0.09232163 -0.17685264 0.11011977
0.06708669 0.25375748 0.10988974
-0.14220285 -0.29216772 0.09152642
0.15631030 -0.30889818 0.11660068
-0.16063297 -0.10394949 0.12525891
0.07390018 0.14178400 0.11390804
0.10390677 -0.01669517 0.09531973
0.11633550 -0.21969475 0.11660248
-0.06191899 -0.10862222 0.11537455
0.21760190 0.31160894 0.05010436
0.32468790 0.25301141 0.02670744
-0.27125165 0.07891378 0.12159995
0.28578502 -0.20905840 0.10363588
0.17625274 0.25613645 0.09099944
-0.17993571 -0.22752920 0.10746181
-0.29196638 -0.29786503 -0.00838947
-0.21097521 -0.26891243 0.10222241
0.19207746 0.00858644 0.11450398
0.24227713 0.23950180 0.08845478
0.29520154 0.21801502 0.09773368
0.04036407 -0.16138175 0.11209510
-0.15521841 0.05206007 0.10634303
0.03937206 0.21626586 0.11676499
0.08470802 -0.24212365 0.10908160
0.28369701 -0.29147258 0.02230586
-0.05628928 0.20030960 0.12803908
0.02731473 -0.01165401 0.11767485
-0.17408924 0.24738844 0.10716270
-0.19294855 0.11308961 0.11533973
-0.08551206 0.09087460 0.11241046
-0.27980202 -0.09231783 0.11794353
-0.03549249 -0.15154803 0.11345542
-0.34484306 -0.28696966 0.06764832
0.27460739 -0.20679776 0.11151174
-0.10290839 0.07036926 0.10641042
-0.06986923 -0.27351481 0.10202076
0.12895294 0.28153819 0.11090549
-0.23563640 0.35279617 0.11398007
-0.26707017 -0.02988186 0.10203564
0.14734899 0.07337351 0.10205458
-0.27595699 0.25506207 0.11450722
0.09222152 -0.26365423 0.11656997
0.20424993 0.03139973 0.12191565
-0.17554507 0.31003553 0.11180075
0.09724802 -0.30834991 0.10528286
-0.30895969 -0.12470020 0.11015265
0.27984449 0.17930725 0.07345589
0.26883453 -0.05572037 0.12296683
-0.19270469 -0.16896114 0.08437164
-0.22968090 0.00955670 0.11348035
0.18397859 0.25967026 0.10739191
0.19039230 0.04493322 0.12736408
0.08410272 0.08213852 0.10961152
-0.03830315 -0.34288278 0.10753566
0.07661141 -0.13485470 0.10498808
0.03035681 0.02436429 0.10410907
0.13286372 0.17950261 0.11638783
0.32401302 -0.07022725 0.11377782
-0.10177217 -0.12282631 0.11297220
-0.25612712 0.01856439 0.11414807
0.12081573 -0.21275882 0.11252230
0.07094593 -0.07508279 0.11848872
-0.22889210 0.10098241 0.11149239
-0.08035012 -0.33824477 0.09375587
-0.18098217 0.25357506 0.12591690
0.23822348 -0.09168105 0.10289060
-0.17233163 0.17464952 0.10605921
-0.17477137 -0.02291291 0.11176084
-0.25957507 0.23536795 0.15956467
0.32716045 0.08451414 0.10268696
-0.11228016 -0.33653301 0.12049516
0.10173877 -0.10476502 0.12417628
0.17137602 0.23532221 0.11062110
0.11391661 0.02435356 0.09461199
0.05121119 0.24848540 0.11296439
0.18787494 -0.31217697 0.06298454
-0.25959772 0.20355482 0.13091013
-0.26082158 -0.12365347 0.08682663
0.35226130 0.09780774 0.16664727
-0.17778766 -0.03987084 0.10752341
0.00393245 -0.35001323 0.11137935
0.29703936 -0.09278935 0.10333076
-0.02667946 0.24548605 0.11173010
0.35715079 -0.18930750 0.39746305
0.05183210 0.24795991 0.11494681
0.09083978 -0.13246962 0.10100780
0.11963119 0.29408380 0.12790602
0.07198784 0.14260979 0.18863401
-0.28741696 -0.27791366 0.11663463
-0.16052783 0.19194534 0.11503772
-0.07360132 0.07529512 0.11352800
-0.08147962 0.11005309 0.11237355
0.23761407 0.26322573 -0.07054278
0.31357619 0.04287625 0.08278885
-0.07988371 0.06965825 0.10338264
-0.10739674 0.24655227 0.10756839
-0.08034640 -0.22903378 0.11539682
-0.12945208 0.02173750 0.11100036
0.28330737 -0.15637037 0.10482114
-0.03315286 -0.32724673 0.06986693
-0.14991936 -0.32254016 0.09469035
0.11360317 -0.28273728 0.07756173
0.30229166 -0.24324037 -0.02523609
-0.26026979 0.27660730 -0.07968228
-0.18121248 0.32919094 0.09697750
0.30168572 0.08223823 0.09574283
-0.26193789 0.08428525 0.10816290
-0.15095842 -0.33330432 0.07252116
-0.30636495 -0.10186428 0.10788036
0.25130683 -0.27932301 0.05300803
0.08060673 -0.07155999 0.12178965
-0.11892227 -0.13785353 0.11900897
0.09530246 -0.31970888 0.07841962
0.07123401 -0.09456450 0.11350030
-0.28122911 -0.16816647 0.07220472
-0.18602493 0.01885068 0.11205416
-0.14777985 0.22921313 0.11058986
-0.20105112 0.11771686 0.11687362
-0.11477408 0.22087772 0.11057226
-0.19796541 0.13816501 0.10046922
0.01549697 -0.32358432 0.11591291
0.24265659 -0.10576409 0.16203269
0.28814089 -0.14696981 0.08860771
0.00421345 0.19636044 0.09801544
0.12576839 0.15928827 0.11564951
-0.24194115 0.23010714 -0.03760870
0.03022091 -0.06714956 0.11805505
0.05216919 0.13470419 0.11079203
0.01114871 -0.00165211 0.11713023
-0.39293760 -0.24175420 0.05418598
-0.11961007 -0.40748450 0.10632320
-0.04004613 -0.38068426 0.09768248
-0.20753616 -0.19988480 0.09807096
-0.14096525 0.07966330 0.09026147
-0.29002815 -0.13659512 0.09038003
-0.13856798 0.06232536 0.12055762
0.23913653 -0.10825050 0.10943776
-0.21867758 0.18801741 0.09929441
0.29107407 0.28450814 -0.05081271
-0.24229790 0.07773088 0.08943986
0.01585892 -0.28207639 0.09687928
0.24376202 -0.00620627 0.11707899
-0.05461619 0.07564302 0.11403133
0.01950248 0.06687797 0.09130388
0.28993133 -0.31462541 -0.00439569
-0.28949302 0.25906923 -0.01234224
-0.16860138 0.19530226 0.11691215
0.00500532 -0.28004739 0.11154902
0.09301587 -0.22258185 0.12921841
0.27962184 0.07370246 0.10019191
0.48814505 -0.07459283 0.06752259
0.20847872 -0.05235137 0.13907281
0.22880772 0.28893673 0.04587382
0.05860502 -0.07140969 0.09651101
0.28778040 0.25752431 0.08389375
-0.22635411 0.18491130 0.37130928
0.24304429 0.29913360 0.10759390
-0.07527244 0.01630292 0.12846766
-0.25914228 0.14590770 0.11672037
-0.00690980 0.10320136 0.12066805
-0.24734336 -0.28241274 0.10970736
0.03100943 -0.03605287 0.12865286
0.05929986 0.34858999 0.08725769
0.25975043 0.19009894 0.13505596
0.04993094 0.17338111 0.11310618
-0.15253590 0.04620010 0.09682418
0.20533179 0.30172813 0.09691112
-0.17743325 0.32082590 0.12361572
0.35378706 -0.25523114 0.15783198
0.22300829 0.16568223 0.12811856
0.08534631 -0.19123827 0.11199007
0.04735012 -0.21302275 0.11989260
-0.16001970 -0.12230015 0.10933711
0.21669048 -0.03220025 0.11687128
-0.19376108 0.01579043 0.11200888
-0.03110412 -0.06451955 0.11540951
0.19387200 -0.22878724 0.11343799
-0.02688232 0.30349693 0.13886699
-0.19086613 -0.16334979 0.10885207
-0.12254007 -0.05632050 0.11341335
-0.13022886 0.04121226 0.11453722
0.12076980 -0.25814077 0.11837703
-0.15812509 0.13614751 0.10280204
-0.25312123 0.16187881 0.10711189
-0.28276265 0.17662755 0.07523611
-0.28436929 0.09998733 0.10622214
0.10613018 -0.37502584 0.10143069
0.16884993 -0.20067832 0.10193428
0.00000997 0.02109420 0.12690100
0.14979079 0.19998324 0.12765495
-0.23668303 0.03941814 0.11541672
-0.22379851 0.12851569 0.11751627
-0.10145701 0.25752255 0.11291549
-0.28208965 0.22039820 0.10189284
0.28690982 -0.10610423 0.09752376
0.20804480 -0.28313616 0.05032262
-0.08027949 0.18295273 0.11924611
0.17878348 -0.02805459 0.10653379
0.18213376 -0.30078405 0.12400584
0.10846187 0.31793779 0.11395908
-0.10369499 0.01511258 0.11389926
0.05142340 0.28327805 0.06478066
0.09476469 0.14351450 0.11474966
-0.08638337 0.25735182 0.10958818
0.29239023 0.01541584 0.09168950
0.30237031 -0.26162037 0.17367652
-0.04655527 -0.02360911 0.09415628
-0.29388797 0.04429390 0.09365388
0.11179027 -0.32727638 0.11682410
0.17076734 -0.20502123 0.08652197
-0.07879005 -0.01886939 0.17261033
0.25151789 0.01034622 0.11891460
-0.32930848 -0.27598113 0.11886716
0.02821278 -0.09262091 0.11493859
-0.24609223 -0.10576428 0.10059629
-0.13465452 -0.03342203 0.11102526
-0.27893645 0.28423655 0.02920999
-0.03405491 0.35372299 0.12053186
0.01180075 -0.17417385 0.11680897
-0.35558724 0.25789896 0.05317442
0.25864747 0.11483995 0.11937537
0.00480905 0.06910925 0.11581756
-0.28397882 0.31295645 -0.03943857
-0.08598261 0.04385820 0.10346214
0.13633026 -0.21961477 0.11782771
-0.21708702 0.15998387 0.12489863
0.10055031 -0.31940156 0.09560855
0.30276817 0.30703780 -0.07816967
-0.04210757 0.27311811 0.08732446
-0.26334766 -0.11070016 0.09818351
0.23672071 -0.08125478 0.10933387
0.11815609 0.32979462 0.11981072
0.26700726 0.30917057 0.05152104
-0.26878548 0.31581312 0.00856931
0.13840710 -0.23267582 0.24978039
0.26012695 -0.12110226 0.10103080
-0.19006282 -0.07100634 0.10037553
0.29030329 -0.29481989 -0.01231494
-0.08174053 0.10170795 0.11305997
0.22551569 -0.30224347 0.12354260
-0.17502388 -0.14239115 0.12563583
0.17860633 0.06007169 0.12164558
0.28309032 0.14226227 0.11114036
0.03186458 0.15335920 0.11969026
-0.29781154 0.09149541 0.07315976
-0.09950349 -0.10475737 0.11572910
0.14641567 -0.08467802 0.11388354
0.03792980 0.13203327 0.10697271
-0.22648609 0.07985477 0.11541754
-0.07744820 -0.16296716 0.11943515
0.16526435 -0.28187656 0.10909446
0.13203032 0.35712403 0.08567824
0.19266927 0.33946785 0.09168067
0.36049390 0.17361751 0.40282887
-0.28494292 -0.29609495 0.13109060
0.25272223 0.13913463 0.09477387
0.18995804 0.13659965 0.12197156
-0.21768945 -0.29926795 0.11308096
-0.25308102 0.27167237 0.06703571
-0.07936173 0.21328412 0.09770595
-0.24061811 -0.23980491 -0.02376877
0.19445351 -0.00851944 0.11938234
0.22939686 -0.05121453 0.08835626
-0.26922068 -0.32557350 0.10064723
0.04395124 0.33970830 0.09279986
0.29997551 0.20567946 0.05649062
-0.14732152 0.30391949 0.09627319
0.06801781 0.10857403 0.10992951
-0.04359703 0.00759875 0.11748388
-0.14519329 0.03742343 0.11952899
0.14648321 0.09399202 0.12896740
-0.27650669 0.19821957 0.37627396
0.29441583 0.28528428 0.01486754
0.28134748 -0.02608611 0.10959997
-0.01852519 0.21032345 0.11042958
-0.28396794 -0.31030193 0.04998929
0.17375983 -0.15250856 0.11458009
0.10002010 -0.11169392 0.09306823
-0.02292829 -0.34333742 0.09270775
-0.11622455 0.28887847 0.09123730
-0.05531973 0.17335193 0.08495938
0.03078919 0.11990521 0.11254992
0.04449760 0.27613735 0.11762507
0.17092969 -0.22451629 0.10417215
-0.28263259 0.16157386 0.11017074
-0.33126563 0.27463049 -0.05674347
-0.18449278 -0.27112800 0.12182485
-0.31413904 0.04826415 0.08774304
0.13505602 0.21200101 0.14967597
-0.46323919 0.28886241 -0.04449727
0.35962391 -0.05286269 0.13970381
0.10878480 -0.31809887 0.11480181
-0.23275241 -0.08765085 0.11742508
0.03600928 0.18396287 0.12352967
0.14671312 -0.13866878 0.11063580
0.17803168 -0.13515592 0.11031166
-0.21133707 0.23460545 0.10755743
0.11839020 -0.05939400 0.11412360
0.25219902 0.05969231 0.10342977
-0.03181895 0.26170653 0.12498349
-0.21303456 -0.27276313 0.06959983
-0.26196802 0.22194971 0.10589485
0.18401641 -0.32939386 0.09871527
0.26930827 0.30050296 0.06324154
-0.10647434 -0.08829915 0.11004096
0.09911811 -0.05629671 0.15403220
0.20506108 0.32402873 0.11750697
-0.32228571 0.18812141 0.10019710
0.14062859 -0.16022480 0.10857987
-0.34402052 0.05157284 0.11564566
-0.16205604 0.31926614 0.10987639
0.14785682 0.19983339 0.11694660
-0.05132673 -0.02732730 0.10157278
-0.20281586 -0.05807474 0.12556469
-0.15193924 0.16552937 0.13475521
-0.07233842 -0.12845731 0.12055717
0.22989604 0.09606771 0.11008544
0.05053442 -0.34329057 0.11997537
-0.29116219 -0.10819124 0.07831670
0.10580841 -0.04997970 0.11577827
0.28411159 -0.02955014 0.02087711
-0.01484718 -0.11759462 0.12040485
-0.09369723 -0.31224665 0.11862850
-0.09337471 0.20835710 0.09193212
0.47564712 0.24055591 -0.04133292
-0.20102267 -0.23755810 0.10802260
-0.25624901 0.16979030 0.09273270
0.13113645 -0.30248830 0.07090022
0.19811068 -0.19953397 0.11227010
-0.21979609 -0.04003228 0.10832095
0.20919161 -0.10805589 0.11357585
0.26661626 -0.24085896 0.10772259
-0.16383401 -0.22430161 0.11081773
-0.10049434 -0.43334895 0.11809666
-0.20989992 0.03395375 0.10779195
0.07389798 0.16456698 0.11234142
0.28851467 0.05182945 -0.05980583
-0.20466138 -0.26130623 0.04900898
0.25238445 0.11209439 0.09875260
0.14115387 -0.13212770 0.10233530
0.08716248 -0.24306126 0.09186694
-0.09252170 -0.08773126 0.11225425
-0.15904564 0.01486675 0.11259001
-0.29300672 -0.16169035 0.13008495
-0.01868443 -0.33883950 0.10284144
0.05834328 0.15235966 0.11058959
0.11085656 -0.03272167 0.09559314
-0.26572895 -0.18809989 0.10471538
-0.15443957 0.00153548 0.11475113
-0.29651323 0.34216827 0.09401098
0.02151544 0.22291586 0.10453089
-0.12604129 -0.26256883 0.11540064
-0.02371731 0.28975481 0.10541855
0.01915376 -0.19808745 0.12236551
-0.15081963 -0.04568839 0.11944829
-0.01394788 0.21338846 0.11439319
-0.09264564 0.04958951 0.11424072
-0.27342516 -0.28711155 0.02274226
-0.19821614 -0.11731938 0.11835109
0.25580382 0.20524949 0.07993024
0.18811059 -0.08060848 0.09204008
-0.17825812 -0.09363788 0.12730172
-0.36502045 0.24919355 0.27077594
-0.02000002 -0.05677145 0.11767378
-0.00869960 0.19741851 0.10688080
0.08846620 0.18121691 0.11588796
-0.01902086 -0.26069185 0.11107575
-0.00105945 0.16243355 0.12953477
-0.23291892 0.13962895 0.09665084
0.24345976 0.07605991 0.10356168
-0.02046763 0.05036496 0.09745640
-0.19025008 -0.21858333 0.09082825
-0.05118164 0.22795720 0.29451632
0.12981202 0.35585293 0.12421763
0.20428549 -0.21820405 0.10822925
-0.17156531 -0.02379380 0.11396458
0.18588671 0.22249386 0.14123854
-0.15801299 0.12197314 0.10465702
0.20728302 -0.17122112 0.10950130
-0.26820144 0.24694158 0.10068192
-0.13108151 -0.21355285 0.11414228
0.07981673 0.19271518 0.09633937
-0.28881347 -0.03365581 0.11493751
0.27095151 -0.13781111 0.11530411
-0.30546051 -0.28647354 0.12974463
0.01376763 -0.04677251 0.11631221
0.20526972 0.19388559 0.09005419
-0.03292362 -0.32570219 0.12164357
0.00763758 -0.13680577 0.18816073
0.20173267 -0.06708794 0.10386301
-0.13670363 -0.09214236 0.10394639
-0.26164699 -0.20859037 0.09547568
-0.27777058 0.29026896 -0.00345246
0.19169375 -0.32824630 0.05554920
0.22763160 0.33227980 0.07155482
0.22351089 0.18105055 0.08314807
-0.13332869 -0.01257662 0.10820600
0.05363795 0.05215002 0.12092203
0.13873625 -0.04709230 0.19305369
-0.00668807 -0.13802247 0.10867450
0.00685726 0.06407633 0.08839527
0.03981126 -0.30139783 0.09997292
0.18873504 0.24736762 0.13375673
-0.24066505 0.29758108 0.06473561
0.19068366 0.07116181 0.08651017
0.32024086 0.27799407 0.01188818
-0.07571554 -0.06766517 0.14563133
0.33390397 0.05305918 0.06173588
-0.14461496 0.12775268 0.11913630
-0.01504028 0.04976474 0.10650029
-0.20994818 0.17834301 0.11560117
0.03170907 0.25766736 0.10418235
-0.07318176 0.37246040 0.10016228
-0.18888113 -0.03890405 0.11202031
0.24312928 0.20325096 -0.11340057
0.27724493 0.05400264 0.10942888
0.14281528 0.00358854 0.10421921
-0.12114844 -0.00040562 0.12037969
0.05514203 -0.14251094 0.11849924
0.19727914 0.17175564 0.12221653
-0.06703627 0.25393012 0.11685334
0.13745832 -0.03677538 0.10221732
0.25027150 -0.16618715 0.10725702
0.20300841 -0.30339405 0.12147185
0.20689495 -0.12076846 0.11518922
-0.34148458 0.10502108 0.07726793
-0.03570677 0.26796177 0.09718666
0.37192330 -0.23048554 0.40834519
0.01998632 -0.19088006 0.11618732
-0.10458153 -0.35943398 0.10664301
0.26406187 -0.26127875 -0.00242341
-0.28520870 -0.27640647 -0.06472818
0.12598538 -0.17466275 0.11656123
0.24399735 0.25014481 -0.08711059
0.34081841 -0.23767316 0.21027479
-0.29296225 0.09638377 0.05093440
-0.08890114 -0.32968724 0.11067525
0.25823867 -0.15054476 0.11696747
0.28282684 -0.02032209 0.11841111
0.03471029 0.14213805 0.18548337
-0.00277895 -0.25491315 0.12259691
-0.13838243 -0.12388054 0.10745331
0.30713823 -0.19882894 0.09450594
0.11252302 0.27968159 0.14679076
-0.05910519 -0.19936767 0.10996534
-0.01430601 -0.32189947 0.12805068
0.26902854 -0.06889077 0.06631014
0.19836316 -0.09696949 0.11712191
-0.05774405 0.17135680 0.11545002
-0.23457253 -0.23695920 0.11638896
0.15312199 -0.26879221 0.08273830
-0.21578254 -0.18944162 0.10789651
-0.23983029 0.19775122 0.27650428
-0.12668614 0.27393189 0.11600722
-0.27994245 -0.00866236 0.19168594
-0.22807750 -0.21270265 0.24882343
0.13329844 0.18864650 0.10302761
-0.27452451 0.04926775 0.10465948
0.25992122 0.05511737 0.11440614
-0.21802583 0.31848931 0.10742401
-0.19877273 -0.10791366 0.10818533
0.16439173 0.20585895 0.09386916
0.13413529 0.16736552 0.11732405
-0.31105164 -0.07741126 0.08964812
0.20214903 0.09322581 0.12453696
0.06357505 -0.24815004 0.12402639
0.12435855 -0.25954899 0.10030237
0.02347015 0.22565955 0.10394949
-0.04541866 0.04232409 0.09915370
-0.25221771 -0.16230796 0.11967193
-0.30559027 0.27941918 0.03198701
0.01379864 -0.05566845 0.10951975
-0.10368896 0.04822091 0.11025806
-0.31987265 -0.01379978 0.06622645
-0.30399832 -0.14389999 0.09766436
0.25825047 0.24642934 0.07686754
0.01320640 -0.12152559 0.10361781
0.16006583 0.26107219 0.11252774
0.20241313 0.19966595 0.12266597
0.01691159 -0.04082052 0.11547272
-0.27708113 0.22341418 0.19001853
-0.34050229 -0.14033191 0.28823391
-0.17158453 0.14969189 0.10405381
-0.10199810 0.24173073 0.11233180
0.21231785 -0.05577108 0.11668336
0.31361198 -0.15871304 0.06594896
0.19124602 0.04136850 0.12668702
-0.02035781 0.07116411 0.12122990
-0.16456641 0.37023455 0.11384145
-0.20737934 -0.19089940 0.10054174
0.23306498 -0.02784317 0.11461299
-0.28196660 0.21708709 0.11084461
0.29601285 -0.02447274 0.07912132
0.18845710 -0.02434186 0.09627681
-0.24351703 0.05308740 0.08568524
-0.21736528 0.02201991 0.10709376
0.30660948 -0.05556387 0.02719643
-0.07015988 -0.22164220 0.09134331
-0.18853101 0.20739755 0.10942513
0.09725425 0.07458533 0.10722264
-0.09714386 -0.24431945 0.10555675
-0.22116631 0.34471625 0.11337472
-0.11737302 0.28471047 0.11908191
-0.03449602 -0.09292333 0.11912581
-0.30617008 0.27330354 0.09560111
0.03634218 0.16190052 0.09974510
0.39471734 0.17338851 0.20165139
0.02460325 -0.08311193 0.11251244
0.06615471 -0.22989202 0.11537456
0.21012801 0.09881866 0.10793355
-0.18753752 0.11198649 0.09493604
0.14823785 0.05716477 0.11255385
0.22596744 0.22773942 0.11416440
0.05732640 0.36121854 0.11155291
-0.25399676 -0.07889101 0.11251046
0.25086537 -0.15353662 0.08844440
-0.17881399 -0.27525541 0.12239853
-0.32931334 -0.06713223 0.09877891
-0.25021410 0.23028427 0.12573713
0.05555032 -0.30426547 0.10196518
0.04683629 0.25517598 0.11869079
-0.35552603 -0.11807824 0.06545455
-0.14346188 0.00251710 0.10366228
-0.20255691 -0.19600366 0.10733923
-0.26272741 0.24489643 -0.03705797
-0.18243966 0.02777291 0.07801845
0.00410555 -0.15322736 0.11567862
-0.30004618 0.27115875 -0.09284668
-0.27224422 0.24496546 0.04371687
0.14939471 0.00066226 0.11034288
0.30868518 0.28957313 0.00191372
0.07719235 0.19424698 0.09496875
0.19404757 0.01779749 0.13653138
-0.26222214 0.16276452 0.09720642
0.33069080 0.28965637 0.08186795
0.06878333 0.15668604 0.10345182
0.01373120 0.05576344 0.11161380
-0.27363068 0.21139175 0.08581458
-0.13275769 -0.01916491 0.10947339
-0.13983482 -0.27450883 0.10833345
-0.30146632 -0.25454447 0.06942670
-0.42329940 -0.22338116 0.10130733
0.06726378 -0.05603054 0.11439611
-0.17380010 -0.22557911 0.11503048
-0.03294522 0.29532659 0.10458477
-0.41445124 0.32477173 0.36493608
0.16730234 0.28210542 0.08636933
0.16660894 -0.21067470 0.11827501
0.07292494 0.13033393 0.11855176
-0.04610680 0.04320752 0.09480601
0.29637200 -0.27983949 -0.05712839
0.35774058 -0.16711161 0.16323777
0.31495884 0.11359193 0.05743021
-0.33923507 0.05167277 0.05770692
-0.36495197 -0.22918481 0.26637697
0.37491751 -0.28626150 -0.10222918
-0.07769272 -0.33973116 0.07830627
-0.02376642 0.09225143 0.10311355
-0.21324760 -0.21880850 0.11313578
-0.08070982 0.08550999 0.10803714
0.00185821 0.31831881 0.13388568
-0.14615332 0.03483156 0.11701597
0.28302738 0.02475865 0.12772028
-0.27103817 -0.03232486 0.10451382
-0.28270891 0.18877888 0.10080738
0.17021142 -0.09929666 0.10607115
0.13718764 -0.20440692 0.11319432
0.29154179 -0.11776797 0.10312808
-0.04666418 0.00397298 0.11840367
-0.29821157 -0.02012009 0.11203334
-0.15166266 0.28957772 0.10100872
0.19274202 -0.20888382 0.10747985
-0.07848126 -0.30388990 0.11451823
-0.02836528 0.03558642 0.11519296
-0.04786027 -0.27550763 0.11981075
0.28579593 0.20487496 0.09999993
-0.22396985 0.08241775 0.08794608
0.31473935 0.00511228 0.10528101
-0.15669861 0.25422409 0.10423227
-0.12950172 -0.34254718 0.12414829
0.22472939 -0.21998028 0.10233383
0.16814658 -0.00355780 0.10403430
0.21489240 -0.07076856 0.11617231
0.14345746 0.17109755 0.10945138
0.11885662 0.21149778 0.10918426
-0.19938971 0.06417281 0.11287510
-0.11168537 -0.03017969 0.11282647
0.31722504 -0.13686565 0.11732853
0.32836562 -0.00089219 0.00733341
-0.10548086 0.08056343 0.10548916
0.21957774 0.13258708 0.09662846
-0.21374378 0.22657141 0.07411276
0.01276965 0.07067762 0.11410489
0.01124704 -0.04798685 0.12181185
0.06225065 -0.04698107 0.11263641
-0.28871265 -0.30888864 0.37172517
0.09574292 -0.05713582 0.11402636
-0.31537756 0.22025187 0.10709193
0.26603103 -0.24137433 0.15742159
0.20279516 -0.07696541 0.10869811
-0.17300472 0.16972058 0.10568785
0.14128496 -0.01624994 0.11084264
0.05806787 -0.06378499 0.10624116
0.22627336 0.19467261 0.10593102
-0.12938431 0.12729898 0.09883077
-0.10952200 -0.15087375 0.11490247
-0.11979580 -0.24867710 0.11018711
-0.11970958 -0.10005069 0.09211496
0.10960835 -0.08551522 0.11434024
0.24220051 -0.00977231 0.11408069
0.01375727 0.25816649 0.09948980
-0.02059223 -0.08921324 0.11134780
-0.11615080 0.03965756 0.10662972
-0.15275075 -0.03851441 0.09035355
-0.25384256 0.03917895 0.10677934
-0.40342563 0.25153995 0.35485506
0.05314963 0.17357898 0.09782651
0.14361049 -0.27058917 0.11504804
-0.23627412 -0.05690883 0.09945431
-0.14158805 -0.03919815 0.11491105
-0.12457928 -0.06846874 0.08738280
-0.24345481 -0.23286055 0.12592131
0.20600115 -0.17336020 0.10022190
0.23226045 0.19265932 0.09544162
0.09822008 -0.24564087 0.10360766
0.31410515 0.04642323 0.06147451
-0.09052061 -0.25876144 0.08743429
0.07455139 0.19570695 0.11919974
-0.27568352 0.18826774 0.21370392
-0.19983876 0.21400745 0.09943347
0.15894476 -0.11037529 0.11771774
-0.17221187 -0.09680042 0.12266255
0.22445916 0.13401754 0.10787900
0.18692204 -0.28272933 0.09850929
-0.12842467 0.27206227 0.09421199
-0.22774675 0.29247952 0.09036853
-0.14415877 0.04120936 0.11203571
0.29948747 -0.11271705 0.05861828
-0.07809394 -0.32946545 0.12551549
0.10832696 -0.29308921 0.11206047
-0.18048067 -0.19627780 0.09993009
-0.16037408 -0.02991457 0.10138074
-0.15846394 0.31116620 0.08561264
0.31063902 0.01939426 0.06131371
-0.19856152 -0.03910043 0.11863661
-0.22786993 -0.17233035 0.11709645
0.04276007 -0.02513434 0.12128536
-0.33197874 0.24280272 0.23847228
0.03118952 -0.18948840 0.12462437
-0.00876062 -0.06048346 0.10298041
0.00180077 0.04473494 0.13488026
0.06579222 -0.26748946 0.12288207
-0.06871559 0.00703406 0.11002738
-0.32930419 0.16489483 0.09950605
0.27511841 0.11191444 0.11935653
0.01457581 0.03629661 0.11772116
-0.04651152 0.00937227 0.11045662
-0.06231420 -0.18070713 0.11359511
0.25146618 -0.05143968 0.12295905
-0.15100482 0.16110241 0.11015807
-0.39149177 0.12751111 0.21623212
0.21062571 -0.14767638 0.10251079
0.32101625 -0.04877876 0.11847051
-0.04260176 0.20659152 0.11581486
0.31206438 0.18336856 0.08250535
-0.05984622 0.33831942 0.10832439
0.22700375 -0.04441385 0.13707489
-0.29842463 0.47387841 0.18817857
-0.27025768 0.00515509 0.09571402
-0.24355935 -0.30290267 0.06882494
0.21768542 -0.30232814 0.10580098
0.16887191 0.01771946 0.11932476
-0.17854401 -0.30851227 0.12589268
0.32995141 -0.26853359 0.03609162
-0.08533336 0.07895132 0.11412732
-0.23926574 0.13773562 0.11542354
-0.01220317 0.15406965 0.11490891
0.24883117 0.02395570 0.09249556
-0.16170822 -0.31464887 0.11360830
0.09745561 -0.08060151 0.11069965
0.08106857 -0.25476989 0.10599368
-0.12408586 0.27861211 0.10160693
-0.19328398 0.27249232 0.12733832
0.27087766 -0.27372503 0.11502378
-0.06139936 -0.01307761 0.11892049
0.01206619 0.24364558 0.12366785
0.25415561 0.18661001 0.11191797
-0.17356193 0.37186697 0.10061502
-0.13542244 -0.34767839 0.11036446
-0.25896981 0.30584547 -0.13051286
-0.10613775 -0.31627426 0.10534625
-0.17182064 -0.12974520 0.10721159
-0.02830158 -0.06960896 0.11423191
0.08577038 -0.03312248 0.11352723
0.27006367 -0.07771555 0.10600489
-0.17950162 0.01991795 0.10825834
-0.15009451 -0.19138652 0.10636441
-0.03238960 0.05548604 0.10537465
-0.06356843 -0.15656666 0.11677940
-0.28888577 0.05852783 0.10959527
-0.04285603 0.33578271 0.08685263
-0.35384560 0.27937809 0.19392061
-0.00027803 0.09182481 0.10300224
0.20410138 -0.26590291 0.11985753
-0.17892018 -0.13741601 0.10193967
0.02815046 -0.29993910 0.12085024
0.07234290 0.29909682 0.11123435
0.31214514 0.20932767 0.06787877
-0.07060821 -0.17711321 0.10452577
-0.18549889 0.08511560 0.10977853
0.04589152 -0.28940475 0.11460892
0.05017046 0.15973361 0.11267018
0.13958727 -0.26397917 0.09692165
0.14198287 -0.07756235 0.11456743
-0.08196247 -0.33809477 0.09631124
0.18141292 -0.08014947 0.12856320
-0.08991950 0.11544345 0.12459125
0.24303538 0.04018536 0.10047531
-0.16734077 -0.08451220 0.15397345
-0.22272268 0.10231753 0.11514862
-0.26820937 0.10667287 0.10918453
0.09085064 0.13091922 0.12270773
0.24384016 -0.04413107 0.10178789
0.04005073 0.01138511 0.10738990
-0.09917568 0.21116300 0.10573386
0.06520353 -0.30023792 0.12129617
-0.10037404 -0.33946952 0.11348292
0.21121514 0.24651232 0.08070637
-0.13944398 0.06174587 0.11881736
-0.25798348 -0.14071307 0.21220656
0.31623700 -0.25847104 0.05149186
-0.17010692 -0.07038094 0.10786942
0.23220922 -0.26293898 0.10723990
-0.27861220 -0.19827420 0.37960815
0.13995194 -0.24164996 0.11557750
-0.29676795 0.31325015 0.11502618
0.28363299 -0.14158431 0.09844825
-0.14569867 0.10346223 0.09938192
-0.11102299 -0.02805121 0.13142711
0.07653154 -0.11642870 0.09858494
-0.25231105 -0.25263932 0.09776028
-0.24158880 0.27086672 0.10404118
0.26354456 -0.13213113 0.11602834
-0.08956731 0.32427838 0.12097110
-0.06178644 -0.27444637 0.11498823
0.22173625 0.24964754 0.01946095
-0.02601495 0.21323855 0.12108642
0.07371612 0.07140191 0.10839984
-0.07840540 0.07470045 0.10644802
0.15373760 -0.21871597 0.11371307
-0.00073827 -0.23251417 0.09780993
-0.10326871 -0.26548940 0.10041701
-0.12791392 0.20851670 0.11477778
0.05479664 0.09472026 0.13132024
0.12174308 0.23881708 0.11534152
0.15865213 0.18449210 0.20873643
0.03105303 0.29445967 0.10511151
-0.00490151 -0.02758742 0.11039633
-0.04381057 -0.09549295 0.11298233
-0.31826735 0.29042000 0.11594160
0.10321067 -0.09235355 0.09787270
0.00492274 0.31167281 0.11374130
0.00469016 -0.05734384 0.19569007
-0.27519187 -0.20296711 0.30453295
0.24589072 0.12138802 0.08189962
-0.28262198 -0.21435633 0.26420075
-0.02331173 -0.27272320 0.10963023
0.13118958 -0.29531965 0.08225258
0.20430608 0.32496938 0.09190118
0.25661603 -0.20401926 0.10322818
0.00327841 0.00528615 0.09381798
-0.17182226 -0.27797532 0.09236421
-0.02773381 0.12907036 0.10954496
-0.03153428 -0.33358130 0.11255436
0.14141051 -0.20429964 0.10757093
-0.17654702 0.31819797 0.09127656
0.04500120 0.20786034 0.10437186
-0.11532187 0.22839053 0.10086311
-0.17601079 0.10480745 0.11531396
0.13352212 -0.02567498 0.09398092
0.10000359 -0.02647030 0.11192702
0.28154832 -0.32589692 0.02119784
0.08833535 0.13062331 0.09763798
-0.23266423 -0.27196395 0.09889679
-0.14128819 -0.15101817 0.12030673
0.22736642 -0.16127327 0.18004912
-0.21481344 -0.09094921 0.11925153
-0.03090938 0.31626695 0.05533772
0.28947097 -0.26872614 0.08006574
0.15152946 -0.13240042 0.10587108
-0.27905005 0.04934215 0.10449450
-0.12908843 -0.02585247 0.11668491
-0.12982930 -0.21397197 0.10828545
0.19597067 -0.20094763 0.11736631
0.05687787 0.31973168 0.11347345
0.11380714 0.15340638 0.10233219
0.20343709 -0.13243224 0.11622925
-0.14403287 0.08506668 0.11477073
-0.03108169 -0.17822011 0.12147258
-0.01293015 -0.05459548 0.10964054
0.21728146 -0.20863372 0.11387838
0.29493433 0.26269925 0.00642449
-0.05593007 0.09639250 0.11192723
0.11679052 0.19298297 0.11347230
0.32030061 0.26769409 0.01767069
-0.21279946 -0.00958161 0.10375284
0.13759613 0.01935551 0.11810290
-0.29639205 0.04775631 0.06060176
-0.17678773 0.33436912 0.09522489
0.14644450 0.35292101 0.10922622
-0.27738798 0.31225792 -0.07162428
0.28238934 0.30348161 -0.00685333
0.26364744 0.04263085 0.10886304
-0.05871679 -0.14502878 0.11053271
-0.26096076 0.29839963 0.01015216
-0.20885003 0.01676588 0.11598507
-0.18151483 0.18067931 0.11099417
0.26169756 0.13420829 0.07865097
-0.09475337 -0.15362673 0.11071569
-0.19002444 0.30987209 0.10659110
-0.20976722 0.22666560 0.09047428
-0.26244640 -0.01347682 0.11389819
-0.10402907 0.26915494 0.11949496
-0.14873208 0.00085090 0.12828472
0.17855066 0.27568817 0.11405710
-0.16704696 -0.22891761 0.10470379
0.00637467 0.26217076 0.10728735
-0.30048618 0.16718285 0.08840074
0.07697745 0.19235447 0.10094665
-0.02762482 0.04012625 0.12210839
0.23400992 0.10367827 0.24683809
-0.22614589 -0.01264778 0.11100940
-0.23130849 -0.29755801 0.01202518
-0.27377975 0.27085203 0.06835095
0.32247394 0.10244914 0.28141767
0.17213023 0.28805909 0.07650720
-0.49265182 -0.25777084 0.24009335
0.24130523 -0.16690342 0.11568493
0.12445442 -0.11750495 0.10643628
-0.22622548 -0.23783660 0.10414539
0.06364778 0.03602640 0.10488140
-0.22312887 0.11071780 0.11064456
-0.24571629 0.18073894 0.10564484
0.18739250 -0.15923688 0.11832402
0.26072541 -0.12187026 0.16085947
0.13101724 -0.31973487 0.11548303
-0.12086803 -0.05534321 0.10383131
-0.03877848 0.32482979 0.09588382
0.24000177 0.08086652 0.11205055
-0.32738525 0.24577081 -0.10202901
0.06135747 0.24587660 0.11433131
-0.15103205 0.19290701 0.13541509
-0.25481203 0.31817722 0.03207069
-0.14992429 0.18490437 0.11386517
0.24693279 -0.21630257 0.08851987
0.00604923 -0.09154679 0.11338730
-0.29293433 0.30189872 -0.00338671
-0.29899728 -0.07133160 0.06885504
-0.05510671 -0.02036532 0.10995209
0.07463016 0.00711024 0.11459957
0.10565216 0.10115452 0.08796018
-0.28917193 0.19010462 0.09700682
-0.20067218 -0.33560282 0.11441791
0.28805014 0.00033952 0.10270008
-0.15415990 -0.37279761 0.11387487
0.30033883 -0.07725163 0.10108114
-0.29262760 0.30586469 0.00719795
0.21046925 -0.03513891 0.10560390
-0.32460600 0.10425729 0.10819316
0.16162039 -0.11478871 0.08123668
0.26018333 -0.03668266 0.09572805
0.09262510 0.10359525 0.11504833
0.24862027 -0.25701678 -0.06269962
0.03443991 0.26679137 0.10523876
-0.16977945 -0.17619336 0.11710762
0.03386486 -0.13190599 0.11295736
-0.13446504 -0.07925906 0.11137899
-0.28006878 -0.04554352 0.08047119
0.16646795 0.35180545 0.10535084
0.28922451 0.09640457 0.13847280
0.28186420 -0.30732855 0.02992023
0.20717515 0.05936916 0.10044112
0.13078344 -0.20782173 0.11519951
0.27481848 0.20534135 0.10723399
-0.10692526 0.30550629 0.11615819
-0.17187819 0.19741997 0.11852933
-0.03232516 0.24289203 0.12277804
-0.18172224 -0.16959704 0.09248289
0.11993978 0.03513098 0.11930900
-0.08899527 -0.07270063 0.10412825
-0.20085306 0.11188732 0.11234640
0.15135248 -0.36566281 0.12715633
0.07437640 -0.14853357 0.11215714
0.28641629 -0.27410862 -0.04729205
0.06095367 0.19544216 0.10632730
-0.09540892 0.31278449 0.08339937
0.23374194 0.13624421 0.12130497
-0.19234316 -0.28127775 0.11743569
-0.07582907 0.11337432 0.12677605
-0.16483638 -0.22773156 0.10635670
-0.21605960 0.01379123 0.12192363
0.23613176 0.05058757 0.11263411
-0.30185261 -0.01568810 0.07380822
-0.13110681 0.22019166 0.11773890
0.31392691 0.29821885 0.02217534
-0.06091426 -0.25883034 0.33562744
-0.25336421 -0.01595707 0.11757615
0.26782805 0.09169089 0.11292845
-0.28979883 0.27333748 0.10615189
-0.29955974 -0.20296504 0.10892044
0.25745255 0.30353025 0.11448917
-0.24814439 -0.07312737 0.01991489
0.31814125 -0.12711968 0.07504320
-0.21877068 0.30361503 0.08456806
-0.09707042 -0.16665089 0.18924433
-0.14669067 0.24455503 0.12537748
-0.05077980 -0.31680524 0.10354844
-0.20433050 0.17393431 0.10482010
-0.13294411 -0.30728740 0.11035920
0.03383218 0.25057638 0.10021929
-0.11811296 -0.00470392 0.12623565
-0.17692675 0.14751793 0.11031298
0.03361648 -0.13972913 0.10800529
0.17378010 -0.17222159 0.10935625
-0.05169215 -0.10432918 0.11423640
-0.08770887 -0.17079200 0.09623224
0.03964789 -0.09765910 0.10970599
-0.08802786 0.23303896 0.11804850
-0.31672415 0.32054508 0.05651793
-0.08478216 0.31407374 0.12146471
0.33134753 -0.24394187 0.12196757
-0.22823498 -0.35660684 0.09737982
-0.14158449 -0.24156222 0.11440895
-0.31846106 0.07030818 0.09506511
0.27080956 0.18006259 0.09256805
0.27184924 0.24031696 0.12116483
-0.26633242 0.23045573 0.09579126
-0.21727623 0.06326049 0.11523314
-0.11564530 -0.02629162 0.09363184
0.33784497 -0.30725813 -0.02629390
-0.29192805 -0.34396344 0.09824325
0.21223612 -0.02000827 0.09092834
0.43138188 -0.22969525 0.18442798
-0.22890639 -0.16642506 0.08067928
0.19466515 0.15914799 0.11532255
-0.19387540 -0.30478418 0.09100626
0.17355275 -0.08712586 0.10067873
-0.10577382 0.30928150 0.04576559
0.12368773 0.04159322 0.11005014
-0.05489808 -0.17893378 0.10598639
-0.19175144 -0.23850831 0.12645110
0.15850517 0.29713339 0.10717650
-0.37897772 -0.27008924 0.06585503
-0.18300912 0.36561012 0.10126525
-0.17948769 0.26914951 0.10249211
