1368
0.04427487 -0.14740245 0.23087953
0.20904107 0.08141123 0.16326399
0.17625806 -0.04658338 0.23627815
0.08748021 -0.04830758 0.23778376
0.07045746 -0.23754026 0.22724545
0.16146584 -0.02202835 0.23471127
0.00000061 0.04417711 0.23846611
-0.00343331 0.33878571 0.23358813
-0.00525356 0.21811479 0.23583439
0.06227473 -0.41859859 0.16276127
-0.20696971 0.39088553 0.12359880
0.11961030 -0.20406088 0.23329078
-0.10625787 0.43169913 0.23567599
-0.21964505 0.29950124 0.06186791
-0.04938149 0.15954724 0.16172919
-0.04877999 0.19057874 0.17212200
0.00492800 0.16866356 0.23434421
0.14502949 0.33016300 0.07858498
0.16889864 0.37062413 0.08547871
0.01365884 -0.42832136 0.23232412
-0.06161444 -0.34947383 0.09611766
0.16651997 -0.17387235 0.23369175
0.05963552 0.19686908 0.23527250
0.21007857 0.34427619 0.14075081
0.11761215 0.14924270 0.22980373
0.20649910 -0.09600453 0.16687372
0.11229171 0.41876274 0.10284784
0.15603729 -0.28803077 0.23060611
0.17989810 0.04581656 0.21730651
0.21301222 0.16875952 0.12568596
0.00463405 0.39789560 0.12998784
-0.12121453 0.26124233 -0.15163724
0.11459257 0.37431771 0.24018708
-0.17337954 -0.42945084 0.21172506
0.21604231 -0.20745406 0.23703647
-0.19087580 -0.20627922 0.23637843
0.02528613 0.27325571 0.23180658
-0.14275572 -0.16775587 0.23570244
0.15551960 -0.32757378 0.06312034
-0.18559387 -0.13861409 0.19196230
-0.08243684 0.33149159 0.02765836
-0.20840080 0.32254338 -0.04787600
-0.21708715 0.26022452 -0.17953381
-0.22178921 -0.30207467 -0.18970209
0.16632393 0.33638191 0.10810760
0.21896771 -0.31961495 0.06485419
-0.01042518 0.28099674 0.23539513
0.03275414 0.06383287 0.23978737
-0.19181576 -0.43594569 0.23478113
0.19557610 -0.33413291 0.22915119
0.21278518 -0.36063138 0.23575139
-0.13703404 0.31559470 0.23438014
-0.01004080 0.09669539 0.23933294
0.03930490 -0.35530412 0.10098819
0.10269543 -0.01623581 0.23964757
-0.00429319 0.10622844 0.23315728
-0.18060668 0.43363565 0.21716782
-0.17909461 0.38007307 0.23602825
-0.06947933 0.24678431 0.23620325
0.11561496 -0.24502635 0.23501606
0.05159605 -0.42530188 0.22908217
-0.12592365 0.34918046 0.23520187
0.01486823 0.43664458 0.21718970
0.15285826 0.35020187 0.23465532
0.08809811 0.06705223 0.23818837
0.20148955 0.43781328 0.23405409
-0.19104746 0.32944611 0.18535769
0.08661261 0.42064053 0.24197638
-0.22291164 0.30559477 -0.06736971
0.04124636 -0.09034449 0.21555336
-0.12920551 0.44846404 0.23826507
-0.18858314 -0.10695928 0.20342231
0.17282341 -0.29473370 0.22896039
-0.21787274 -0.27823707 -0.02415960
0.19170357 0.29177099 0.23295720
-0.07850784 -0.13035461 0.23376797
-0.17914450 0.02125012 0.23764563
-0.08587246 -0.30420008 0.23633978
-0.20837939 0.28126708 -0.22622563
0.20002586 0.09796654 0.16640946
-0.01828004 -0.21008156 0.23647091
-0.18706085 0.21471111 -0.03036582
-0.15786654 0.37715751 0.09795820
0.00263034 0.29631597 0.23589244
-0.16498885 -0.30450395 0.23432648
0.02011301 0.12514949 0.23423496
-0.09300833 -0.12806186 0.22952689
0.13798021 -0.21201265 0.23679061
0.02832435 0.14127652 0.23110497
0.21178991 -0.24664903 0.16327444
-0.07306506 0.11393028 0.21375370
0.18005639 0.30003375 0.20271917
0.14520811 -0.06957275 0.23316416
-0.08211475 -0.42530659 0.18493995
-0.11553884 -0.18823564 0.23412098
0.17749000 -0.29858914 0.23703358
-0.06543879 0.32948506 0.15397744
-0.03603556 0.34366143 0.23500982
0.19442733 0.20365900 0.23915224
-0.20139335 0.15661308 0.15980811
-0.06020562 -0.25839430 0.23395458
0.07802476 -0.28064123 0.23977107
0.09860247 0.35173756 0.18726337
0.20895244 0.29422051 0.12005140
0.07136749 -0.25167871 0.23863789
-0.11402477 -0.39209497 0.23749702
-0.05849276 0.40909964 0.23662323
-0.00417828 -0.32050765 -0.11708724
-0.20896646 -0.21660399 0.16245255
0.01628757 0.34018067 0.23537850
-0.05046470 -0.40439612 0.22925261
-0.12100536 0.42968619 0.23795487
-0.14300868 0.21209270 0.24068889
0.18791513 0.21659933 -0.00430275
0.07892506 0.44027382 0.23230773
-0.05307392 -0.18302754 0.23589267
-0.08984428 0.43125916 0.23737876
-0.00636096 0.33045924 -0.09236514
0.11558530 0.43471408 0.18212029
-0.02196214 -0.27434629 0.23293328
-0.08179686 -0.14555739 0.21192935
0.07593380 0.40336663 0.10492565
-0.05123284 -0.12739845 0.23610553
-0.06342894 -0.43512166 0.21941781
0.15205786 -0.24097565 0.23878056
0.19307306 0.02097796 0.23601416
0.18752107 -0.13704130 0.23141298
0.10075670 0.08291295 0.23852021
0.07763720 0.33373052 0.07401258
0.08191042 -0.22442064 0.24308693
-0.11640668 -0.01428010 0.20842689
0.19488090 0.33889699 0.23722562
0.08688832 -0.04463449 0.23533791
0.16886559 0.25524920 0.23622209
-0.02258999 0.43498057 0.22769135
-0.19177765 0.38294500 0.23618662
-0.05979615 -0.43320891 0.21324572
-0.18886483 0.26857355 0.02789769
0.10710044 -0.38512516 0.23529333
0.05240465 -0.14061293 0.23118210
-0.09776263 0.16538805 0.24022552
0.03608241 -0.39322352 0.23413491
0.18468486 0.17250454 0.23023267
-0.12151092 -0.37278903 0.23804650
0.11892302 -0.38193241 0.22246733
-0.19122657 0.16247630 0.23255219
-0.22333473 -0.31552321 -0.12940730
0.08345213 0.37043214 0.23539048
-0.06917076 0.05064653 0.23619407
0.13459706 -0.29108906 0.23768398
0.05357014 -0.00304774 0.21272990
-0.05292688 -0.32682878 0.01765810
0.13630357 -0.39905399 0.23294923
-0.07974521 -0.01996791 0.23354951
-0.12975220 0.12439962 0.23307067
0.22483751 -0.29523650 -0.12103611
0.12541714 -0.12763208 0.23659149
0.00719669 -0.17543085 0.19601314
0.11147573 0.43504024 0.22159350
0.12196238 0.41968724 0.23862155
-0.18723506 -0.34918889 0.21937981
-0.18395418 0.24927804 0.23485973
0.01169907 -0.25487745 0.24036252
-0.10689120 0.21123984 0.23801163
0.18675539 0.39903325 0.21656460
0.00163519 -0.41461676 0.13188791
-0.13280345 -0.32649136 -0.02188078
0.16423748 -0.21159716 0.23343506
-0.21148553 0.14884201 0.08696569
-0.19139253 -0.29525110 0.23274913
-0.18678214 0.40475357 0.23798272
-0.04779231 0.43759388 0.19936770
0.07097508 -0.06309854 0.23499107
0.03552208 0.42846283 0.23881066
-0.10095452 -0.42042339 0.23767056
0.03303284 -0.24543856 0.23675120
0.17247352 -0.33802247 0.23500460
0.01612719 0.23388964 0.23892392
-0.07228613 0.00392559 0.23424698
-0.20396449 0.36631975 0.10420026
-0.11243044 0.27983394 0.23701522
0.03541921 -0.36379907 0.16954634
0.14867067 0.43629038 0.23581214
0.19776702 -0.32557777 -0.01017328
-0.19350244 0.10681284 0.23785882
-0.19935024 0.23817866 0.23316292
0.03794710 -0.15982172 0.23083720
-0.18053418 -0.03591476 0.20857441
0.20257381 -0.25725833 0.23328108
0.02350493 -0.33010879 0.07961368
0.01235202 0.13323346 0.23384029
0.11323758 0.43442395 0.16315982
0.19608828 -0.43596905 0.22817966
-0.19847518 -0.34657216 0.23322053
-0.18479997 0.05983236 0.20974687
-0.18598291 -0.25876710 0.23793897
0.22438230 -0.27243403 0.03484601
-0.21977055 0.20404729 0.07154087
-0.22040305 0.23735578 0.09310122
-0.00870312 -0.32436037 0.23132655
-0.20023754 -0.33946937 0.16795671
0.06195324 -0.27902940 0.23210251
0.13255037 -0.15825847 0.23764834
0.19594648 -0.17129447 0.23711589
-0.18012714 0.03707367 0.20461552
0.00197533 0.31432563 0.23237506
-0.22321610 0.28546360 -0.02407221
-0.01949479 0.07147391 0.23354477
0.06044722 -0.29259482 0.23715565
0.17581829 0.35374996 0.21041584
0.13566114 -0.31068373 -0.18963978
0.05975919 -0.04421375 0.23602040
-0.22433887 -0.27914497 -0.02104727
0.04779299 0.42369181 0.18920225
0.01771329 0.11017892 0.23577228
-0.04895898 0.06528403 0.23649143
0.19546098 -0.09169312 0.23592389
-0.12381882 0.11026218 0.22963023
-0.09459005 -0.26349506 0.23876294
-0.20210978 0.23146048 0.13604757
0.18895233 0.34285313 0.21312898
0.15456381 0.18773402 0.23688745
0.02536413 -0.37521011 0.17274567
-0.04261194 0.44997540 0.23805867
0.08549593 -0.34049857 0.23496395
0.16721380 0.02028742 0.23394486
0.21506831 -0.33267528 -0.08652416
0.21160099 -0.03112240 0.17605147
-0.18551522 0.12445270 0.23745710
0.21841440 -0.29349422 0.15954337
0.06488362 -0.41906077 0.12604699
0.02701715 -0.14252640 0.23130126
0.09976386 -0.22830850 0.23832653
0.03053614 0.40509993 0.23640160
0.10169203 0.19302410 0.23686256
0.09323740 -0.15684493 0.23983416
0.18333489 0.04673171 0.23616584
0.19471154 0.29521650 -0.23342395
0.20629634 0.10152354 0.23595960
-0.16150370 -0.18505728 0.23961565
-0.10604510 0.34875673 0.09093601
-0.13981986 -0.11631687 0.23280942
0.17089194 0.25739640 -0.19221658
0.03021922 -0.20665085 0.23609775
-0.07456541 0.22533631 -0.18403561
-0.08439875 0.26253408 -0.07030136
0.13218659 0.29873466 0.23814905
-0.10312253 -0.32067081 0.23756874
-0.15411490 0.08320905 0.24045305
-0.19203401 -0.24520659 0.23461142
-0.03850441 0.19079354 0.23314628
-0.21103440 0.09067035 0.17140588
0.22257778 -0.42997587 0.16904375
-0.08450793 0.39595491 0.11126146
0.20031333 0.09019603 0.23602603
-0.21181555 0.32986733 0.08708083
-0.16677998 0.36518711 0.23836061
-0.03539938 0.28725952 0.04346094
-0.17790307 0.28556013 0.23894323
-0.23720053 -0.40078276 0.23402594
-0.02549545 -0.12702879 0.23245743
-0.21148127 0.21718581 0.11541127
0.20686489 0.15528020 0.17455384
0.14869146 0.30511054 0.23219168
-0.11052084 -0.04008410 0.23754312
-0.02123510 -0.02107215 0.23731105
0.09782279 -0.13241319 0.23430054
-0.12360881 0.16511609 0.23581433
0.03413184 0.06743734 0.23426738
-0.03718343 -0.20609209 0.23121887
0.22917432 -0.29009923 -0.02560618
0.01869123 0.15738133 0.23383617
-0.18468353 -0.12308995 0.21071747
-0.14718458 0.32475430 -0.08030469
0.01617726 0.43513685 0.24088559
0.22097939 -0.32231590 0.02872349
-0.20949283 -0.17297497 0.15278269
-0.18903428 0.43641314 0.24110934
0.18094170 -0.33496010 0.23964140
-0.01203264 0.18700202 0.23907474
0.17807235 -0.34791648 0.23328616
-0.15696383 0.10406631 0.23532768
-0.19058654 0.36689627 0.20617297
-0.14012755 -0.40885252 0.23488724
-0.05695012 -0.11172162 0.23401360
0.19925426 0.32221729 0.18618119
-0.18130365 -0.10689200 0.23696977
0.11306392 0.41122669 0.23813945
0.14753392 0.35680917 0.23644751
0.17675357 0.10351510 0.23938653
0.18959214 -0.23169515 0.23400933
-0.19579676 0.21797968 -0.18065685
0.18921806 -0.35586914 0.23239769
0.07618146 -0.23143828 0.23264790
0.20167029 0.21239047 0.07745786
0.12995510 0.28131270 0.23930883
-0.03805948 0.14418271 0.23299587
0.14165241 0.34688973 0.23351711
-0.13073108 -0.43229812 0.19109783
-0.10071625 -0.09281573 0.20766947
-0.15361148 0.29326564 0.23389882
-0.12529528 0.11333504 0.23247665
-0.19270912 -0.21924984 0.20553748
0.15041381 -0.33932555 -0.03877575
-0.19133382 0.34976143 0.23400164
-0.02328952 0.20215335 0.23054232
-0.14685224 0.12709877 0.23672688
0.18484825 0.25152549 0.23702599
0.17786303 -0.08905970 0.22003224
-0.16197465 0.14196002 0.23777348
-0.12990235 -0.38537627 0.23928460
0.19080999 0.23123328 -0.17287517
0.22620367 0.24683663 -0.02224265
0.11970608 -0.30077448 0.23788007
-0.22016887 0.33195731 -0.19854105
0.09336445 -0.02269424 0.23341870
-0.04803387 0.01257504 0.23896146
-0.14111155 0.33053923 0.18315975
-0.06482227 0.23054783 0.23621589
0.20921417 0.22008936 0.17143530
0.06535901 0.43368483 0.23405197
0.22033226 0.20216143 -0.09155624
-0.14535767 0.40097189 0.23243859
-0.01895698 0.43366277 0.24062690
0.10491595 -0.31977740 0.23451096
-0.00191994 0.24132079 0.23590600
0.11330499 -0.20038085 0.23004088
0.07547636 -0.25240463 0.18368995
-0.18425359 -0.30742958 0.22917044
0.12294195 -0.12900132 0.23024821
0.08417687 0.03500073 0.23526117
-0.07448083 -0.36131474 0.16087613
0.08425228 0.38121733 0.16261193
-0.03971470 0.43341368 0.19510724
-0.16744056 0.34998780 0.23436981
-0.13089198 0.33865142 0.23497280
-0.10276131 -0.14794900 0.23579155
-0.01023010 -0.08421718 0.23620415
0.03754912 0.35304832 0.23686734
-0.19559880 0.19857076 0.15979373
0.20669213 -0.02363500 0.17526929
0.00014789 0.43629232 0.16315670
0.20891416 -0.16611159 0.14850071
0.01230969 0.41365907 0.23152225
-0.17951527 -0.21351874 0.23860930
-0.02126350 -0.23372352 0.19098450
-0.09024759 0.32749820 0.01678210
-0.20311329 -0.22980040 0.18638460
-0.21386176 0.23105778 -0.22593825
-0.02628457 0.34908825 0.14848170
-0.08148248 0.30645505 0.23492585
0.20070101 0.37515298 0.17589071
-0.18060397 -0.17663677 0.23543692
0.20076005 0.35439369 0.10934890
-0.07708675 0.36131510 0.15817507
0.02434287 -0.33863410 0.23592269
-0.10164614 -0.38792616 0.14780441
0.21795571 -0.32148021 -0.13709256
-0.02930551 0.33816218 0.13010167
0.04751103 -0.43133110 0.23202321
-0.14832684 -0.39322931 0.14572270
-0.19187433 0.24889101 0.23460579
0.14208370 -0.00769091 0.23401065
-0.14922675 -0.06106092 0.23513246
0.09783436 0.12092660 0.19393274
0.03159239 0.18426329 0.23261026
0.16743161 0.15119717 0.22779718
0.18568555 -0.32014838 0.02571788
-0.08898796 -0.38078439 0.11720493
0.18641193 -0.28809088 0.23577395
-0.16081500 0.43599215 0.22830239
0.12638859 0.24514142 -0.21870710
0.14010327 -0.34339747 0.00648236
-0.04655750 -0.09349259 0.23632236
-0.19412273 -0.33471650 0.06433855
0.15992306 -0.32830691 0.18813026
0.05134467 0.26562423 0.23593259
0.18411633 -0.03780950 0.23663321
-0.01840565 -0.12380659 0.23605907
-0.16393045 -0.32776341 -0.10050866
0.18177450 -0.32100761 -0.00031661
-0.05472684 0.16415656 0.19609092
-0.12762313 -0.38029808 0.22584516
-0.03365354 -0.36703125 0.23665038
-0.18110290 0.11485979 0.19809067
0.20872399 -0.36941382 0.12464825
0.12156414 -0.43369758 0.20994654
-0.00972740 0.03033012 0.23756939
0.15597805 0.31236765 -0.01224321
-0.18567513 0.21744606 0.23333468
0.04501551 -0.28800610 0.23452899
0.20037840 -0.31861892 0.19605702
0.22940293 0.25388461 -0.11421509
-0.13573490 0.26218605 0.03337429
0.00099683 0.44061026 0.20492670
0.17104001 -0.05743193 0.23612940
0.13505591 0.11402246 0.23644274
0.22872400 -0.30664399 -0.02040357
-0.02315951 -0.33084425 0.13895826
0.09357946 0.02646875 0.23227999
-0.04723214 0.29273972 0.23591828
-0.21859697 0.00258133 0.17860529
0.20349792 -0.31193483 -0.17020090
-0.21089932 -0.34529781 0.12544893
0.05821733 0.42033476 0.23663768
0.07928354 0.03560594 0.23540670
0.07470258 0.38403827 0.23297170
-0.17037164 -0.03959904 0.23764057
-0.07468411 0.07888982 0.23067939
0.20348155 -0.41536027 0.14692920
-0.12984923 0.39239049 0.23820245
0.14474368 0.40977514 0.23959330
0.14085135 0.13274409 0.23750053
-0.18415222 0.41197571 0.21059251
0.22373745 -0.31398636 -0.09939034
-0.00822437 0.39073139 0.23266929
0.17485526 -0.43848509 0.22730024
-0.06033001 -0.23527616 0.23739827
-0.01144763 -0.31806409 0.02079665
-0.07211924 0.31238294 0.23719138
0.06688310 -0.21050559 0.23977791
-0.17317991 0.28372294 0.23650239
0.07236191 -0.08476341 0.23548785
-0.01858363 0.29463509 0.23862442
-0.02527396 0.08127569 0.22940613
0.05504320 0.35596842 0.23404919
-0.13021562 0.21873480 0.05981150
-0.02470483 0.03558032 0.23466136
0.14440510 0.21991581 0.04576620
-0.07834446 -0.14673738 0.23283529
0.09786238 -0.20235799 0.23516229
-0.17485695 -0.06833609 0.23928082
-0.09563430 0.16364053 0.23777267
0.19309483 0.32240236 0.23794635
-0.07545011 0.25458005 -0.18001810
-0.13647842 0.03373681 0.21571001
0.11438371 0.32375276 -0.08275495
0.09233513 0.10092311 0.23364198
0.02342575 -0.43321267 0.22717288
-0.12710133 -0.42866588 0.16069140
0.03564250 0.32649350 0.03655628
0.19993865 -0.42200974 0.23223704
-0.03145848 0.17117399 0.23669498
0.01094575 0.33299574 0.23363259
-0.09712109 0.43993598 0.22985712
0.19799960 0.43371493 0.22953935
0.05989898 -0.40537810 0.23483852
-0.20147645 0.00815472 0.16374736
0.04413565 0.15546781 0.23698793
-0.03511971 0.13364540 0.23703633
-0.13497826 0.44131139 0.18231833
-0.06844429 -0.31841052 0.23339647
-0.21516214 0.30534089 0.02705958
-0.00934486 0.19515470 0.23319486
0.14507283 0.29293951 -0.15728769
0.20131706 0.13469318 0.09210932
-0.09725114 0.06229075 0.23547027
-0.08083463 0.15619457 0.23630303
0.07834090 0.40056956 0.23377374
-0.04432664 0.32743186 0.23720044
0.15492094 -0.23734550 0.20253490
-0.21161573 0.28350985 0.13360111
0.17902482 -0.23290041 0.19759157
-0.15249151 0.31518459 0.23825353
-0.15281874 0.43024534 0.15105173
-0.17674690 -0.22096141 0.22740167
0.18490066 -0.38723499 0.21372312
0.13558282 0.02129349 0.23354328
-0.14686851 -0.12001242 0.23832561
-0.18705487 0.42927897 0.23037723
0.17410724 -0.23611206 0.20050660
0.00743548 -0.06930889 0.24301665
-0.19096765 -0.29732823 0.02537525
-0.01802380 -0.33065301 0.07722675
0.19514403 -0.29723820 0.10510632
0.17556879 0.42988583 0.14341287
-0.14182588 -0.02859219 0.23677108
-0.10398076 -0.43633047 0.23651156
0.20734502 -0.41974461 0.22464716
-0.17833571 0.01375432 0.23802479
-0.06273624 -0.27045718 0.23507866
-0.13484462 -0.30512977 -0.22042963
-0.10699152 0.39652270 0.23885530
0.02965244 -0.04820267 0.23394221
-0.20670432 0.11743565 0.14655009
0.08185413 -0.41283840 0.23473448
0.01397440 0.25519603 0.23562935
0.20911248 0.21778241 0.13883339
-0.07160164 -0.08354594 0.23971191
-0.22602686 0.23537485 -0.01131851
-0.01949977 0.22786328 0.23659748
-0.18072209 -0.06534610 0.24191743
0.17992803 0.37681341 0.23753941
0.01300575 -0.05454540 0.21080703
-0.10315867 0.07047567 0.23534521
-0.11323957 0.00655883 0.23533690
0.19632275 -0.18862271 0.23672643
-0.01498136 -0.07939127 0.22870256
-0.00817312 -0.22163902 0.23828343
-0.13842276 0.27649119 0.23783143
-0.11549976 -0.26096255 0.23517948
-0.22557646 0.26622370 0.04215875
-0.19451179 -0.31358451 -0.05178344
-0.11890891 0.17582929 0.23332098
-0.16181353 0.32358789 -0.02453507
0.17380132 -0.29541287 0.23306796
-0.00634127 0.13952532 0.23628739
0.01552633 -0.19767843 0.22756350
-0.10483176 0.07829394 0.23762530
0.01017732 -0.00213147 0.23487759
0.20870540 -0.34196019 0.16985051
-0.09446353 0.05381505 0.23274048
-0.11368235 -0.30698174 0.23356766
0.03465391 -0.31996399 -0.15827024
-0.09079708 0.27328625 0.23537654
0.10906556 -0.09007079 0.23346360
0.02937769 0.42200458 0.20887461
0.09527446 0.23537523 0.23544981
0.22221726 0.32146871 -0.02345036
0.19334400 0.04795775 0.19417158
0.01484760 -0.32427877 0.22937702
0.22686441 0.24832544 0.09911149
-0.08899581 -0.43334481 0.18090126
0.13884805 -0.42957142 0.15556863
0.21881144 -0.28354436 0.12081471
-0.21223548 -0.33125699 -0.20995602
-0.03538485 -0.15310994 0.23728824
-0.22463806 0.26173219 0.02049502
0.07124592 -0.17884405 0.23636000
0.18952322 0.33046716 0.14216098
-0.13367970 -0.33977401 0.23958157
0.02763223 0.12294047 0.23417115
-0.18522033 0.09074982 0.21230769
-0.18753403 -0.30239487 0.08142025
-0.20837791 -0.19154517 0.16012302
0.13422537 -0.27728450 0.23075929
0.11533757 0.31881332 0.01856254
0.03311137 0.41813654 0.23549375
0.19566122 0.39181736 0.23331675
-0.20127776 -0.24564576 0.16255721
-0.07582168 -0.31218538 0.23317894
0.20534161 -0.29428008 0.07034332
-0.18173756 -0.03292696 0.23763020
0.01193478 -0.29132897 0.20717786
-0.19451661 -0.19785501 0.23592161
0.18703941 -0.05642731 0.23989633
-0.20002505 -0.39140862 0.23657700
-0.06457944 -0.09106109 0.23783574
0.00416708 -0.42162567 0.23542251
-0.14219905 -0.36732030 0.12891972
-0.22186561 0.11440708 0.12640724
-0.00858301 -0.41158515 0.23442340
0.17975345 0.16211843 0.23287171
-0.10899678 0.24503587 0.23665127
0.19283819 -0.29455590 0.23642793
0.01076628 0.15316261 0.23973030
0.18802184 0.19264053 0.23467284
0.19881070 -0.09310774 0.23787430
0.05708902 0.31846038 0.13220277
0.20308083 0.04659711 0.15421176
-0.04467503 -0.08941526 0.23155977
0.03185611 -0.25974584 0.23452066
-0.20772380 -0.31070083 -0.23389894
0.19261844 0.40804541 0.23640993
-0.05352680 0.07152019 0.23936221
-0.18832141 -0.03905095 0.23171189
-0.07603307 0.07034019 0.23162058
-0.15234309 -0.02085589 0.23301262
0.04644671 -0.15695816 0.23706047
0.18386409 -0.15953602 0.23981574
-0.09430806 0.14271387 0.19394892
0.16436204 0.27413875 0.23432565
-0.18451706 -0.32729936 0.09002908
-0.17730029 -0.16369352 0.19761568
0.05434805 0.33209899 -0.08912446
0.05395847 -0.03174872 0.23273808
-0.01809771 -0.32702342 -0.03589550
0.03077754 0.28897607 0.23857573
0.13835447 -0.42072570 0.23228201
0.13862845 -0.38796383 0.23843256
-0.02820258 -0.34620810 0.10088329
-0.13479130 -0.32134652 0.18724258
0.10660112 -0.38680530 0.23344719
-0.03139903 0.19592409 -0.18016988
-0.04588766 -0.34567618 -0.05512132
0.20737006 0.20916528 0.10141711
0.07150342 0.29065648 0.23322618
0.21866158 0.26192743 -0.18527910
0.02255541 -0.33652979 0.23445281
-0.05690730 -0.04602758 0.23326865
0.11230384 -0.08635914 0.23560485
-0.16128580 -0.10993154 0.23930424
-0.13412791 -0.34719467 0.23170894
-0.15545759 -0.43590510 0.22844693
0.20845789 -0.23549396 0.17560345
-0.08312295 -0.12809116 0.23219815
-0.20650649 -0.03031658 0.15566780
0.14228433 -0.39563081 0.10520966
-0.00810050 0.43513423 0.23580094
-0.02285277 0.39880189 0.11248051
0.03119701 -0.13152848 0.23928279
-0.17217501 -0.34930354 0.13283463
-0.16150306 0.35334191 0.24120556
0.21025613 -0.26299092 0.10513875
0.12528375 0.43907449 0.23343691
-0.18744394 -0.28332132 0.23186085
0.14049099 -0.31652141 -0.14262843
0.07989528 -0.01168148 0.23624323
-0.07001321 0.25288403 0.19581871
0.18984470 -0.24439241 0.23138919
0.20950742 -0.28950280 -0.04419949
-0.18747765 0.18037944 0.23140822
0.15004691 -0.33311397 0.24186608
0.22123769 0.22362617 -0.05559091
0.22683391 -0.28757000 0.04537415
-0.18012206 -0.32253486 -0.01626895
0.18870251 0.18437535 0.23784938
0.21619348 -0.31538171 -0.16802391
0.19901219 0.41859958 0.23636246
-0.04053016 -0.40086517 0.23859072
-0.13815644 -0.27619842 0.23349993
-0.11467575 0.32738507 0.04579764
0.19854461 -0.07087110 0.23168737
-0.02929284 -0.20278986 0.19821632
0.17749707 -0.09078290 0.23636869
0.17868294 0.33251780 0.24424607
0.21850534 -0.28115821 0.07887141
0.08428644 -0.30639517 -0.19858842
0.11532347 0.18002795 0.23902756
0.17390281 -0.32165313 -0.07877960
-0.21668890 0.19356561 -0.01348209
-0.21936299 -0.31730223 0.05070248
-0.13035746 -0.13766918 0.20955402
-0.04507685 0.01098109 0.20278433
0.09288187 -0.12828007 0.23700280
-0.08060966 -0.22746655 0.23224851
-0.08527485 0.33410555 -0.06772381
-0.08690844 0.10126387 0.23540896
0.11416440 0.37216687 0.07155091
0.18984325 -0.32287169 0.09669372
-0.20086896 0.09078874 0.23091385
-0.11566854 0.13198209 0.23515484
0.03286485 0.37341714 0.08460526
0.14060158 0.34373373 0.23678470
-0.04598655 0.30083108 -0.19082516
-0.10388567 -0.32503092 0.04413899
-0.03244527 -0.40824574 0.23781058
-0.06806685 -0.24676177 0.19133699
0.07875073 0.12257546 0.23574378
0.14260022 -0.32602072 -0.01149272
-0.12633955 0.25340885 0.23108493
-0.21402225 -0.28032649 0.07511067
0.17542739 -0.23967767 0.23751125
-0.18517113 0.32675970 0.00804997
-0.18345952 -0.19830418 0.17143759
-0.00319892 0.25401884 0.23787020
0.19360411 -0.23604879 0.20572343
0.05083469 0.12618397 0.23055594
-0.18289785 0.32184428 0.03100254
-0.18622899 0.08869607 0.23988502
-0.03868341 -0.03954994 0.23187500
0.02148476 -0.01826198 0.23898181
0.16142349 -0.33171386 -0.14553545
-0.13671710 -0.33551669 0.10548918
-0.19475152 0.23725589 -0.07725334
-0.03762834 -0.00931483 0.23263359
0.20647299 -0.04025631 0.16380545
0.09973605 0.20159414 0.23409137
-0.10725538 -0.39479327 0.23547882
-0.19814646 -0.05285760 0.18506369
-0.06050636 -0.14809033 0.23865956
-0.08901368 0.43135700 0.21441209
0.05567952 0.32150525 0.23430723
0.17713180 0.13360821 0.23445973
-0.16169599 -0.42698017 0.11787468
0.01660502 0.09939329 0.23760442
0.17084022 -0.03463022 0.19863720
0.12112129 0.01419282 0.24099338
0.14075331 0.17737177 0.23201194
0.12335690 0.09584142 0.20492895
0.05252292 0.23723705 0.19791237
0.02641719 0.18789539 0.23201475
0.01694387 0.19842167 0.23588863
-0.04868937 0.43010700 0.23738278
0.11359333 -0.22271714 0.23522006
0.02237902 -0.35458297 0.22501408
-0.12359058 -0.37806118 0.22982487
-0.00508176 0.00990461 0.23154637
0.02007657 -0.03824368 0.23550266
0.06206394 -0.25039637 0.23639134
-0.16037431 -0.42639527 0.23559555
0.04415203 -0.10191864 0.23663953
0.07961752 0.10472188 0.18575947
-0.00113219 0.33059078 0.04773975
0.02524137 0.27973664 0.23097938
-0.20033556 -0.40494940 0.23461835
0.14641145 -0.04317889 0.23373128
0.09702536 0.26389974 0.23385458
-0.06458441 0.33687508 0.23452038
0.03722598 -0.03441195 0.24091002
-0.18059561 -0.11173700 0.23713842
0.00308879 -0.23754218 0.17296730
0.04012921 -0.00029639 0.23712412
0.15815198 0.29692543 0.23854515
-0.15004072 -0.18333209 0.23375277
-0.14511907 0.02184012 0.23889898
-0.09158426 -0.02162759 0.22995025
-0.08595517 -0.43468508 0.23558828
0.08546119 -0.25247675 0.23802173
0.07737830 0.21788733 0.24016273
0.15606561 0.19255751 0.23273021
-0.02342954 0.32799366 0.00178275
-0.08889650 0.29648495 0.23731861
-0.06344493 -0.32124555 0.23186706
0.11781764 0.43846744 0.22745955
-0.05663272 -0.01133724 0.23894650
-0.14641473 0.18999004 0.23204866
0.17655560 0.26548111 0.23632741
-0.11627612 -0.35892707 0.22853737
-0.00118900 0.16481632 0.23495176
-0.11943681 0.29655588 0.12302063
0.17930800 -0.29822153 0.23160127
-0.12742144 -0.24904574 0.23545848
-0.05808067 -0.32438529 -0.09692779
0.09197299 -0.28496212 0.23294841
0.03250070 0.07856637 0.24204460
-0.18025942 0.33274603 -0.14033943
0.02618495 -0.44784340 0.23605397
0.19251519 0.04916892 0.23148283
-0.11905364 -0.32925123 -0.10467714
0.03994838 -0.27398518 0.23521329
0.09266568 -0.40898415 0.23358570
-0.17923713 -0.04413109 0.23683818
-0.09542634 -0.21725756 0.22991706
0.05365811 -0.32595658 -0.00246256
0.20698345 -0.28077215 0.17960727
-0.00939309 -0.02297750 0.23397246
0.13471588 0.33768547 0.23802602
0.20679453 -0.14155786 0.19058673
0.16313711 -0.03595399 0.23337086
0.19138552 0.21810818 0.23390865
0.02847797 -0.31937003 0.23460352
0.15694317 0.12807776 0.19939479
-0.01418209 0.19046861 0.23719802
-0.16742551 -0.32080650 0.14624792
0.17991705 -0.14474581 0.22221044
-0.10572441 0.32215285 0.23661774
0.19141093 0.16661122 0.23477465
0.13833196 -0.03805268 0.23246734
-0.17363726 -0.03264511 0.23576111
0.14766121 0.02804199 0.20656691
0.14421833 0.17546801 0.23415247
-0.17083669 -0.30140984 -0.05134294
0.12629074 -0.39004308 0.23194143
0.01734235 -0.09448642 0.23629688
0.13895208 -0.35382727 0.12853591
0.18350080 0.11961110 0.23536274
0.18489859 0.22488293 -0.14931068
-0.13493381 0.08640748 0.23748034
-0.21878460 0.29005396 0.10143810
-0.01244600 0.39394233 0.23534225
-0.08421599 -0.20569748 0.18564135
0.19376874 -0.41546136 0.23258153
-0.08650698 0.41798350 0.23817776
-0.08916323 -0.11836229 0.23011938
-0.03019548 0.42736459 0.16982162
0.10894340 0.33398145 0.23847231
-0.08288559 0.02544598 0.21260230
0.13342410 0.20317018 0.21675974
0.04038677 0.30436617 0.23507181
-0.18731959 0.20875587 0.23763853
-0.13062826 0.25897503 0.23884790
0.07095496 0.30710095 0.20599866
-0.10115728 -0.15394108 0.23519078
0.22198682 0.29695547 -0.14211586
0.03173870 -0.21846834 0.21001244
-0.01571944 0.30016541 0.23217791
-0.20708871 0.40228349 0.23415293
0.01206017 -0.13452372 0.20869675
-0.12737960 -0.39834824 0.23400520
0.01296709 -0.30352819 0.23580277
0.06147779 -0.31788281 0.18201023
0.13157840 0.12655227 0.24053574
0.17728746 -0.37275678 0.23549092
-0.17662209 -0.02689633 0.22783180
-0.11377078 -0.43981621 0.23808311
0.14369974 0.31762788 0.04335140
-0.18791226 0.30832875 0.20815301
0.11472502 0.17794091 0.23176682
-0.13957593 -0.33749595 0.23028807
-0.07366493 -0.25508189 0.23483272
-0.15754107 0.21480843 0.23166990
0.06154041 0.00911170 0.23440728
0.21180275 -0.22280759 0.14447999
0.20315194 -0.28644595 -0.20678711
-0.18259974 0.26306954 0.23767374
0.03657056 0.15066883 0.23608550
0.15435189 -0.06543975 0.23853907
0.09353610 0.22181168 0.23792312
0.14069431 -0.13841555 0.23934045
-0.07009770 0.04775606 0.23041330
0.16509944 0.25845268 -0.01658881
0.13527599 -0.07769132 0.23685272
-0.15946198 0.43364906 0.23602265
0.18125048 0.00608747 0.23838028
0.01850958 -0.41224936 0.23504002
-0.21564260 0.14120165 0.16568872
-0.05219895 0.09411345 0.23643839
-0.05220714 0.24822000 0.23407693
0.19906935 -0.21315387 0.23265263
-0.06137383 0.44254777 0.23599282
0.19039261 0.43182725 0.23530154
-0.02118635 0.18298912 0.19185537
0.11378237 -0.05870819 0.23775116
0.10876054 -0.07405531 0.23514695
-0.00045463 -0.42090470 0.23825353
0.10578273 -0.42646503 0.23126048
0.00764352 -0.37414950 0.23899294
-0.02556311 -0.28626511 0.23832005
-0.14882296 -0.10355225 0.23988354
0.20448871 0.04216149 0.17563081
-0.01561482 -0.11369270 0.21169201
0.08810552 -0.27976057 0.21418284
0.12537992 0.32286054 -0.18796980
-0.14915150 -0.25537655 0.19175604
0.03122079 0.29287398 0.23608744
-0.19173740 0.35409135 0.12887798
-0.18193986 -0.20309277 0.23426133
0.15556383 -0.16919640 0.23702946
-0.15670896 -0.31264469 0.00652334
0.03516909 0.19656886 0.23106280
0.22167677 0.22297545 -0.09959008
0.10939862 -0.33364770 0.23491250
0.02088207 0.32747647 0.20674378
0.15927479 -0.43725598 0.18559009
0.07451344 0.38033795 0.23483548
-0.00025323 0.43591768 0.22688965
-0.16423167 -0.18804817 0.23167551
-0.00574990 -0.31426096 0.23163727
-0.20573966 0.32155570 0.19751698
0.10523310 -0.21564393 0.23732249
0.23288625 0.20997995 0.08725473
0.07502043 0.14429571 0.23396277
-0.02319105 -0.02509185 0.23520008
-0.20958647 -0.29854164 -0.09592222
0.20339344 0.30836880 0.23433030
0.09549238 -0.31568575 0.24295220
-0.11765382 0.13731393 0.24162662
-0.15266509 -0.33219677 -0.07089151
0.03232231 -0.25960165 0.23654032
-0.20849329 -0.29130596 0.15218139
-0.03714519 0.41232955 0.24101551
-0.07066187 -0.21790943 0.23739666
-0.19373539 -0.37304509 0.10344930
0.15037265 0.08322283 0.23616724
0.18519491 -0.16339362 0.22676167
0.01459941 0.42466569 0.09318629
0.21082215 0.08324541 0.13110518
-0.14535862 -0.07640626 0.21275160
-0.13233267 0.32759297 0.08116140
0.12693857 -0.31952792 0.02698985
-0.20378932 -0.16762695 0.23839751
-0.20589234 -0.16815366 0.14619070
0.02369791 -0.04858877 0.22675848
0.20640776 0.09773095 0.18546534
0.14985292 -0.13681705 0.23167796
-0.22019389 0.32359287 -0.00275965
-0.00370559 -0.32704991 0.23426172
0.20124123 -0.18799511 0.24000719
-0.05541711 -0.15416923 0.23429772
0.19127211 0.20540105 -0.20636448
0.07113957 0.29037622 0.23386408
-0.18171695 -0.19237757 0.24068028
-0.01830734 -0.00676752 0.23337191
0.21303114 0.28588584 0.03774011
0.08655729 -0.13207465 0.23347071
-0.08946348 -0.41855296 0.22156803
0.18063204 0.06535464 0.23488484
0.07449392 -0.05101883 0.21211886
0.10956280 -0.12555563 0.23876221
0.04511167 -0.29695520 0.19860016
0.10537633 0.07550542 0.23610073
-0.12322088 -0.25886360 0.23255685
0.07091595 0.14095318 0.20722093
0.17397657 0.17909400 0.23253751
-0.16511570 0.31331742 0.08586606
-0.20729326 -0.26467323 0.07926191
-0.16676296 -0.23483783 0.17686641
-0.19019124 -0.26608020 0.23362860
-0.02141352 0.24392974 0.20490502
-0.19860855 0.43341094 0.23478328
-0.03396931 0.32028559 -0.13570385
-0.13343579 0.18828744 0.23784792
-0.16592605 -0.33393225 -0.19902167
-0.19117343 -0.29713452 -0.22691874
-0.05816138 0.38043073 0.08225789
0.16488808 0.32181835 0.23272577
0.06311630 0.03773919 0.23557094
-0.11455581 0.30899715 0.23292810
-0.18553473 0.19146881 0.21413654
0.21909879 0.21217275 0.06072059
0.07402413 -0.33255011 0.23567876
0.09531255 0.28978795 0.12145811
0.05729191 -0.36266947 0.23256719
-0.10128686 0.33069044 0.23269010
0.18226740 -0.30810040 -0.09685203
-0.03148539 -0.06268307 0.23519483
0.19537398 -0.41469717 0.23148131
-0.15947084 0.40094566 0.13913289
0.01211310 -0.03871362 0.23245408
0.02194688 0.15252659 0.18374977
0.09509358 -0.05874694 0.23137942
-0.16333917 0.43917191 0.19802411
-0.20408875 -0.42640752 0.19921653
-0.07076277 0.03910354 0.23490022
0.06365681 -0.42883641 0.19685030
-0.18898025 0.24227923 0.23622158
0.20080891 -0.40135184 0.13808389
-0.03061053 -0.43834072 0.19922715
-0.06358783 0.01032719 0.23791489
-0.14561251 -0.32036662 0.23354465
0.01062316 0.18259987 0.23559213
-0.18997532 -0.32485238 0.23339148
-0.21347263 -0.32259589 0.07260677
0.19961691 -0.12171353 0.16354589
0.03528789 0.15220681 0.23428395
0.16082150 0.15945035 0.23115771
0.08803062 -0.19071868 0.23439528
0.13829428 0.30880928 0.24060106
-0.18963806 -0.41177928 0.21911404
-0.13024879 -0.14347920 0.23879224
-0.13421366 -0.42919534 0.22100803
0.16454333 -0.30542931 0.23389949
-0.20108803 -0.29387641 -0.02935596
-0.12277702 0.13003917 0.23774034
0.16285610 0.23486716 0.23479867
0.21121190 -0.29946584 0.03639258
-0.06928942 0.10641138 0.23150933
0.18221641 -0.37977260 0.23616689
-0.17914101 0.28463286 0.23604324
0.04884830 -0.23127690 0.23993991
0.17535990 -0.32509971 0.23706502
0.03855751 -0.37674126 0.14096554
0.22212160 -0.33176395 -0.22762713
-0.13192004 0.40152356 0.23814420
0.18458682 -0.01846420 0.22694428
0.16126442 -0.42506728 0.13661930
0.18660030 0.19919379 0.23645283
-0.10526449 -0.32330698 0.16193271
-0.20510696 -0.40689808 0.16378051
-0.03757822 0.32551813 0.04823319
-0.18739790 0.10293207 0.23794764
0.08389087 0.43686408 0.13715294
-0.06075300 -0.09733403 0.23725843
-0.21759632 -0.27915287 -0.08457281
-0.11295307 0.39876291 0.22968239
-0.08851134 0.14254832 0.23565444
-0.07992532 -0.00399124 0.23293786
-0.18779086 -0.00983680 0.21315204
0.19613713 0.37081075 0.23031265
0.18207601 0.13544179 0.23951606
-0.20662971 -0.23701298 0.14656052
-0.00234252 -0.33098245 0.19107963
-0.09919822 0.15648018 0.23610815
0.18852711 0.43563834 0.21520147
0.19913501 -0.33821565 0.22854328
0.21923357 -0.25491551 0.12540212
0.01416289 -0.34213227 0.23159964
0.18410005 0.32194629 0.02352785
0.08295081 0.07669404 0.23251638
-0.16126522 0.43970281 0.22873691
0.19636962 0.43101960 0.19719979
0.21367553 -0.31033832 -0.22912565
0.02291341 0.40922371 0.22634694
0.07190531 -0.33632755 0.23373380
-0.16964388 0.31254268 0.24023315
-0.09238011 -0.33289689 0.07640845
-0.03298783 -0.17700469 0.23384397
0.06616838 -0.28102323 -0.16490661
0.04295086 0.02910875 0.23882037
0.07056931 -0.31467390 0.23725040
-0.07952158 -0.35427663 0.20132568
0.16443354 0.10321601 0.23849465
0.02813370 -0.15460634 0.23707299
0.22295968 -0.29633132 -0.10676518
0.06136580 0.13819483 0.23522165
0.02071161 -0.26410264 0.23846087
-0.11365258 0.22337565 0.23522866
-0.19246817 0.40498647 0.18298395
-0.05898740 0.40384871 0.22956617
-0.12651505 0.12811136 0.23516658
-0.19053510 -0.42102829 0.23260131
0.10684168 -0.33514473 0.08475667
0.02793827 -0.23841169 0.23603547
0.16596445 0.14338796 0.13630971
0.15375228 0.13492766 0.16840938
0.08168063 0.28690809 0.23768249
-0.19279051 0.33006069 -0.08569141
-0.12500757 0.18493629 0.23889796
-0.07752952 -0.06701266 0.22849384
0.20215778 0.13300112 0.18107712
0.04104533 0.14309528 0.23796348
-0.17519595 0.37290537 0.23939314
-0.00273219 -0.37270340 0.23622853
0.11975625 -0.18465316 0.20993045
-0.01445314 0.13905403 0.20771858
0.18726045 0.18021171 0.23184370
-0.10479292 -0.03122899 0.23681471
0.21074775 0.33585721 0.07562791
-0.17398675 -0.19383636 0.23689178
-0.02035163 -0.30536348 0.14477816
0.07654428 -0.25991502 0.23595381
-0.06828389 0.27322200 0.23332883
-0.03929063 0.34672418 0.12075898
0.09539860 -0.38695914 0.23688608
0.21682592 -0.43030983 0.23180246
0.18510601 -0.07689220 0.23693255
0.10103090 -0.25956732 0.23306638
-0.05146906 0.42477825 0.12693682
0.15666167 -0.03641498 0.23342407
0.18238841 -0.01027719 0.23970655
-0.03036544 -0.19530627 0.23646784
0.20600238 0.17539671 0.15274382
-0.02621167 -0.21380657 0.23403260
0.06838278 -0.13295576 0.24003249
-0.14722879 -0.32097682 0.05530290
0.16003668 0.41412199 0.23810664
-0.05418513 -0.33090276 -0.17373161
-0.09417631 0.01770441 0.23916735
-0.12743583 0.33596876 -0.11892749
-0.13382988 0.07132069 0.23667541
-0.13379408 -0.12986885 0.23342854
-0.06426318 0.11712393 0.23728254
-0.15252088 -0.43045509 0.18161987
-0.11393856 -0.04532028 0.23339695
-0.13218071 0.42237377 0.24197260
0.19600502 0.27280283 0.23713407
0.00423931 0.14184502 0.23494543
0.18756831 -0.40726939 0.21948989
0.06596555 0.02542670 0.23425043
-0.08311223 0.08032339 0.23924601
0.07013221 0.21843340 0.23320569
-0.20783062 -0.29106951 0.12453061
-0.17674114 0.09542052 0.23522972
-0.02101434 0.43088621 0.23800397
0.15947185 -0.04592815 0.23780523
-0.05699887 -0.33945945 0.23528828
-0.03893903 0.33213723 0.10436615
0.20035498 0.00915735 0.16234174
0.07599229 0.13316961 0.23321578
-0.14473280 -0.42748103 0.23096451
0.13733852 -0.14198068 0.23621640
-0.10735722 -0.24029019 0.23188081
0.08837569 -0.25871822 0.23691055
-0.03573791 -0.05761232 0.23669693
-0.13514318 0.09242948 0.23457032
-0.22418487 -0.33321005 -0.07071570
0.20572242 0.42549324 0.18400569
0.18890843 -0.23778352 0.23363551
0.03656650 -0.35427785 0.02479884
0.00209942 -0.19885486 0.23551443
0.19083416 -0.18636641 0.22840112
-0.21729684 -0.29686233 -0.14085925
0.07431096 -0.34896657 0.23301202
-0.17175868 0.20665394 0.23114309
-0.00774262 -0.28943509 0.23580396
0.10173421 0.16247615 0.15390471
0.20114775 0.19667925 -0.13242511
0.20088303 -0.32183871 -0.08294570
0.07209384 -0.33043134 -0.16292728
0.05107454 -0.28836036 0.23556089
0.18736476 0.30522040 0.23324859
0.18280511 0.04099999 0.23440112
-0.18791910 -0.36816090 0.23489581
-0.00005936 -0.39378837 0.23785287
-0.09380172 0.07464176 0.24138248
0.18332429 -0.03389530 0.23338959
-0.18118501 -0.30427551 -0.20296621
0.12895229 -0.07094002 0.23249210
-0.05601652 -0.29652119 0.04527082
-0.03082258 -0.02886642 0.23630527
-0.14641024 0.32145822 0.04038646
-0.18723822 -0.03586640 0.23419535
0.13085139 0.35716850 0.23571908
-0.00162356 0.44462496 0.23868871
-0.10218884 0.01478249 0.23004252
-0.01118241 0.33959925 0.23716848
-0.01215264 0.44030005 0.23359144
0.09910870 0.43438202 0.22960587
-0.21685804 -0.29561213 0.07007079
-0.20743352 -0.22240838 0.15375055
-0.18807516 0.13485971 0.23508908
-0.01141124 0.34167227 0.23737057
0.21569972 -0.26268023 0.12463760
-0.21145779 -0.27359870 0.05802149
-0.21418890 0.18776232 0.10648637
0.20381993 -0.18337506 0.19866619
-0.00832787 -0.02241107 0.23639506
0.09802039 0.23474500 -0.06852943
0.18749954 0.04939692 0.23841639
-0.09441313 0.35386083 0.17854623
-0.05583666 -0.35289121 0.22989610
0.10204157 -0.11915036 0.23175722
-0.05826028 -0.42780200 0.22237478
-0.21837804 0.24330042 0.06052367
0.05960284 -0.43966004 0.20021705
-0.10193183 -0.21823825 0.20060866
0.06512979 -0.10261899 0.21459424
0.12095593 0.38068777 0.24076101
-0.15035635 -0.35852468 0.23716488
0.18918669 0.22783756 0.21032780
0.21832620 -0.32717431 0.00687455
0.21671824 -0.26800489 0.08543554
0.20035470 -0.02168283 0.23454881
0.02556831 -0.23161316 0.23354018
0.19194663 0.21158499 0.22524887
-0.08002795 0.33135858 0.06613714
-0.18445158 -0.10773571 0.20276967
-0.10703889 0.18363832 0.23727427
0.09260736 -0.32583642 0.04647466
-0.14343771 0.35688603 0.23634109
0.19048825 0.40090099 0.12513621
0.22274868 0.21621168 0.04392106
0.05385515 0.26658684 0.23622501
0.21972781 0.32507795 -0.16189645
0.19060089 0.10738225 0.22758606
-0.04786859 0.08481548 0.20735636
-0.16283000 -0.31375822 0.03187487
-0.13594449 -0.12374827 0.23254596
0.05521743 -0.36869615 0.23617518
-0.07179466 -0.32776725 0.23195821
-0.03346414 -0.27642444 0.23664999
-0.14622207 -0.38211930 0.23129195
-0.16157305 0.18173981 0.22982755
0.19631687 -0.32883036 0.04743117
-0.22260332 0.24624005 -0.06325854
-0.00619249 0.43978608 0.23424762
0.07435093 0.33341300 0.12603562
-0.16784571 0.08081461 0.20300964
0.00623005 -0.08569735 0.23373479
-0.22601923 -0.28637648 0.02532731
0.00224600 0.18604399 0.11967710
0.22338535 -0.26652986 -0.00030361
-0.00415378 -0.15158103 0.23807129
0.13178909 0.43902612 0.23261625
-0.09383159 0.35829949 0.23732494
0.01019961 -0.37690607 0.23702186
0.13191482 0.29935700 0.01046328
-0.23248583 0.20091787 -0.13426550
-0.04980899 0.32617188 0.19398427
-0.03042493 -0.08123773 0.23426148
0.03566136 0.43242234 0.21150276
-0.19538577 0.29941121 0.11786667
-0.09483598 -0.32820231 -0.13589250
0.08105686 -0.43080169 0.22910158
0.10731892 -0.25319201 0.23613620
-0.17771071 0.23104975 -0.19267160
-0.17990243 -0.13925298 0.23300165
0.22553656 -0.28486902 -0.09113872
0.10573077 -0.30892426 0.23390651
-0.08420202 0.43994674 0.18451717
0.07044341 -0.05083451 0.23320040
0.03529940 0.39299905 0.23890629
0.02630158 -0.28085059 0.23525959
-0.17020585 0.22327076 0.24050552
0.11625417 -0.43865865 0.22548836
-0.22027770 -0.31396404 -0.00047899
-0.12563096 0.27239949 0.23184994
-0.10053317 -0.22313835 0.23321417
0.22651623 0.25556698 0.06366538
0.12617585 0.07755486 0.23515837
0.13127574 -0.29736763 0.23655371
-0.18438096 0.42899027 0.15897167
-0.17883673 -0.08593784 0.23879600
0.20020603 -0.05492855 0.16506135
0.01916383 -0.31815356 0.15965080
0.15134692 0.37484419 0.23784289
0.19580588 0.32293150 -0.02005602
-0.16197060 -0.32860291 0.15603317
-0.15246361 0.30863509 0.22777534
0.20544636 0.27217430 0.14195491
0.18587509 -0.19805147 0.23566929
-0.09430373 0.01880946 0.23803264
-0.09060748 0.43596497 0.19425482
-0.11548994 0.42478764 0.23251098
-0.18583368 0.32070595 0.23099133
0.13824873 -0.07075257 0.23603410
-0.01587652 -0.34796244 0.23146461
-0.19755670 0.26737833 0.19398673
-0.02627958 -0.36922732 0.23587862
0.10290826 -0.01540167 0.22550282
-0.16804075 0.37364346 0.23716076
-0.10623927 0.02297484 0.23561525
0.18042877 -0.12161423 0.23266149
-0.05981566 0.20934865 0.23322165
-0.17836395 -0.36452365 0.23485434
-0.19942276 -0.40121782 0.23331279
-0.04416435 -0.40205947 0.12839609
0.00474368 -0.42421561 0.23945279
0.19451544 0.06763346 0.23066966
-0.20699769 -0.13857704 0.16563511
0.11231828 0.11010857 0.23716800
0.06104338 -0.17676850 0.23906118
0.00428087 0.43673044 0.23045202
0.01908652 0.08985025 0.23335934
0.12212753 0.04951199 0.21019989
0.13626111 -0.29417127 0.23166338
0.10537235 -0.31823599 -0.15826754
0.12860061 -0.36363566 0.23386878
0.06029164 0.25987279 0.23157331
0.03966890 0.03143166 0.23046418
-0.20631626 -0.29035607 -0.18056604
-0.06113730 0.16986157 0.23031089
-0.05670783 -0.07058115 0.23221064
0.01221713 0.27352691 0.09262057
-0.22229461 -0.32828149 -0.12108336
0.16880959 0.07216804 0.23289087
-0.18225962 0.22765261 -0.16492106
0.14567688 0.05634519 0.23642537
-0.04760089 0.31970167 0.23834714
-0.07169637 -0.17674048 0.23366547
0.16649050 0.19887313 0.23086557
-0.20227599 0.43584603 0.19246542
0.04659943 0.18993890 0.10218174
0.06564817 0.38022813 0.23207274
0.09565172 0.18659505 0.23728958
0.07260275 0.06330163 0.23051924
0.09407265 0.22558063 0.23492360
-0.21513662 -0.27452767 0.12581320
-0.20083152 -0.34495312 0.11871696
-0.03500690 -0.37604100 0.17161997
-0.14075620 0.30269510 0.24003038
-0.04860663 0.26527160 0.23782289
-0.14118882 -0.14224333 0.23621824
-0.04589081 0.22507265 -0.16107427
0.06818964 0.32105303 0.01550644
-0.03670611 0.40572914 0.24077040
0.17936356 0.11083682 0.21137846
-0.20292535 -0.06546155 0.18689749
0.19591527 0.42011780 0.15952703
0.10474914 -0.33117068 -0.11850693
-0.17825851 -0.43504044 0.16580412
-0.19230294 0.22091217 0.23443776
0.16867219 -0.15082732 0.23527391
0.08731973 -0.04302388 0.23396161
-0.10140548 0.33080053 0.23342402
0.19121851 0.40306926 0.23252466
-0.15560097 -0.22793071 0.23458683
-0.04907849 -0.31504995 0.23444439
0.00732440 0.15277353 0.23582298
0.13503861 0.12412830 0.12208296
-0.03179495 -0.26991212 0.23108304
-0.11005939 -0.04574994 0.21035375
-0.08190498 -0.32173586 0.01634416
0.05777808 -0.36249429 0.23366876
0.12606801 0.23378515 0.23151003
0.21187106 0.15930608 0.09195048
-0.08217984 0.43396279 0.23015395
0.03453946 -0.44318777 0.22371253
-0.16124654 0.13812055 0.24046639
0.22500585 0.29861966 -0.04969200
0.06929447 0.33101350 0.15569490
0.22093850 0.29794133 -0.20283964
-0.11393388 -0.38356829 0.23408076
0.18133342 -0.15341091 0.23572767
-0.03042188 0.00013452 0.23220685
0.16832036 -0.30912232 0.23361015
0.13341145 0.03880696 0.23339763
-0.09435260 0.24715972 0.23448059
-0.04369669 0.31604850 0.22648279
0.14769077 -0.29556558 -0.19943184
0.05470800 0.15745397 0.23832554
0.00867048 0.43909422 0.23109506
-0.15576258 0.25953150 -0.22051126
0.18463807 -0.10095813 0.23770235
0.11452904 -0.32054704 0.15561604
0.07952867 -0.42107245 0.18021409
0.11959986 -0.29829317 0.23609206
-0.17066497 -0.41970405 0.23817787
0.09269044 0.18494785 0.23184344
-0.10414714 0.26539147 0.23371653
0.02259338 0.08710375 0.22878897
0.14682123 0.33043987 0.10730264
0.20228735 0.40246943 0.23823920
0.02000538 0.24855980 -0.12799087
-0.18867747 -0.33781940 -0.23001689
-0.17427395 0.27053776 0.23531362
-0.00605380 -0.38910288 0.20974237
-0.16471182 0.23929642 0.23370126
-0.01777332 0.01414078 0.23841833
-0.17663729 0.00406630 0.23302224
0.06327277 0.42919189 0.23619941
0.05550942 0.21738894 0.23409295
-0.14601509 0.31795958 0.12177818
0.10218008 -0.26118654 0.23516938
0.16256315 -0.13769382 0.23918378
-0.21539944 -0.25010160 0.12935939
-0.04918491 0.27376258 0.23589316
-0.08006607 -0.29990387 0.18808198
-0.06421994 -0.12019747 0.23763296
0.16277990 0.11462417 0.23822948
0.16701107 -0.09749427 0.23924731
-0.10246398 0.18732874 0.23048377
0.09443498 0.43867835 0.23922756
0.19406231 -0.05824471 0.20205089
-0.13656820 -0.30826581 -0.06179411
-0.15573186 -0.23345487 0.19295366
0.19704512 -0.06348415 0.23962763
0.09821365 0.39386231 0.23807833
0.21114312 -0.39993516 0.23153922
0.02898762 -0.25497538 0.23394792
0.02904165 0.43617785 0.16569997
0.10879525 -0.29883003 0.23435536
-0.08879166 -0.05201160 0.23407066
0.18914382 -0.25441217 0.08257220
0.19675207 -0.22221667 0.21763755
0.17588507 -0.12964684 0.23386797
0.06602878 0.24837391 0.23509072
-0.20864776 0.05560713 0.16276160
-0.22760135 0.23640449 -0.11132608
0.19399649 -0.24295668 0.18945971
-0.19019264 0.43701679 0.23180982
0.01197028 -0.42853799 0.22901441
0.19249788 0.10531769 0.23657700
0.08331284 0.23113145 0.03971813
0.15109952 -0.40863711 0.23718113
-0.05930182 -0.20020357 0.23853464
0.00357633 -0.00080239 0.22808428
-0.15336755 0.25655943 0.14715211
0.10121682 -0.06101329 0.23572510
-0.17879775 0.08302667 0.23513529
0.09062716 -0.39890629 0.23608094
0.19824442 -0.08211343 0.23120955
-0.08266179 -0.41786504 0.13106792
-0.07999604 0.36346358 0.23743817
0.10452990 0.14785878 0.23209798
0.21811569 0.31981102 0.17895323
0.20204875 -0.20647882 0.15257016
0.14330468 0.29345506 0.23493275
-0.14697482 -0.36793041 0.23676369
0.08970582 -0.08624890 0.23439932
0.16951853 -0.28644207 0.23701270
0.04491966 0.37105915 0.23597381
-0.20155436 0.40885073 0.23440996
0.15529123 -0.32558411 -0.05333333
0.19548702 -0.15130150 0.23427162
0.08973400 0.27570739 0.23760380
0.11206308 0.26498887 0.23583996
0.19101442 0.16097873 0.23377524
0.07617581 -0.32484120 0.06315066
-0.08484733 0.12734371 0.23605780
-0.15925138 0.20621803 -0.05587056
0.12536356 0.10553244 0.23739651
0.12456996 0.24460715 0.23989138
0.21838924 0.25709695 -0.05675257
0.07142608 0.19922951 -0.16879433
-0.10831027 0.36323714 0.23651800
0.17138168 0.40393537 0.24072856
-0.02314741 -0.44284004 0.23065580
0.08723108 -0.08696628 0.23412186
0.19227329 0.22148228 0.23810785
0.12230304 -0.27146345 0.23668882
0.08403505 -0.29450083 0.16397439
-0.19092286 0.03937645 0.23577946
0.21803612 0.31678367 0.04741555
-0.15605624 0.40256026 0.23651102
0.21699755 0.19185349 -0.04087703
0.18665966 -0.37197834 0.12127551
