1368
0.10655452 -0.16531034 0.16999274
-0.03975898 0.19811307 -0.04595682
0.23145175 -0.18684381 0.14332281
0.03431755 -0.14402692 0.17759624
-0.24517076 0.15264758 0.15740040
-0.17400450 0.18924740 0.17904073
0.13850762 -0.21222253 0.17664941
0.28265765 0.13085914 0.15887514
0.19267038 0.31874084 0.16066933
0.15645902 0.13223350 0.17515771
0.17219329 0.31140298 0.17218965
0.04623929 0.35458982 0.18315031
-0.04558822 -0.03889800 0.17903505
0.16723907 0.18941191 0.17347687
0.12297200 0.25226748 0.17745058
-0.02757736 -0.14057067 0.14090052
0.02765602 0.32249984 0.16938598
-0.16015539 0.17372182 0.04021530
-0.16480052 0.25871792 -0.13449217
0.04587642 -0.03574515 0.17738755
0.15142840 -0.13909256 0.17419320
-0.14763014 -0.02490780 0.17978498
0.13302474 -0.07352051 0.13547257
0.31143373 -0.20714356 0.16923021
-0.01091549 -0.08126947 0.16943792
0.25383684 -0.34501308 0.15193355
0.09275309 0.16745879 0.15394650
0.23044114 -0.00826142 0.16607668
-0.03544074 -0.08649860 0.17337012
0.13707265 0.20005973 -0.06880234
0.15762167 -0.16264465 0.15049762
-0.06407399 0.19146836 0.17317642
-0.26650351 -0.07472712 0.16779703
0.13204587 -0.19197439 0.17798924
-0.12369749 -0.11691406 0.17765200
-0.03561823 0.04626601 -0.04030976
0.14605704 0.23554938 0.14705682
0.29833195 -0.24022475 0.16307561
-0.23038732 -0.05917237 0.13354091
-0.14727798 0.18830033 -0.04856856
-0.20502920 -0.02635071 0.16863160
-0.13760976 0.24276277 0.12236336
-0.11625356 0.17871171 0.17002231
0.23007888 0.24465986 0.17421773
0.06609733 0.03979634 0.17010933
0.06149303 -0.17296994 0.16648126
-0.23990917 0.00557210 0.16222700
0.03665395 0.27291211 0.17000738
-0.17819484 -0.22262436 0.17496350
0.11291581 0.17119840 -0.05585227
0.01477289 0.06285049 0.17417310
0.14429922 0.22435409 0.17967153
0.28849602 -0.02027728 0.13815220
0.31396919 0.11730688 0.16412039
0.15644313 -0.24087968 0.19133316
0.08952709 0.22437637 0.16133635
-0.27592263 -0.13814092 0.17656536
-0.20190789 0.03151484 0.17348062
0.17260602 -0.22322893 0.17204526
0.17006549 -0.19860087 0.11478886
0.19881001 0.19615170 0.16953474
-0.26394573 -0.11305773 0.17713425
-0.07460146 -0.13129187 0.17872190
0.02447129 0.16876212 0.17811581
-0.10324281 0.16272767 0.08054765
0.18984997 -0.20864379 -0.11506699
-0.11361602 -0.25169250 0.17081331
-0.27567375 -0.10375321 0.15617277
0.05166551 -0.23116453 0.17372012
0.15207800 -0.06269641 0.18076804
0.17347549 0.21169314 0.12603420
0.20369920 -0.12584893 0.16734184
0.09239405 0.19835338 0.16480625
0.18786788 0.19126415 -0.02180173
-0.23155433 0.08503005 0.17673507
0.04214999 -0.33586803 0.16878958
-0.12816164 -0.26583254 0.14274780
-0.28037632 -0.06826600 0.15096767
-0.06031842 -0.08756328 -0.02448532
-0.08491261 -0.21561861 -0.12955996
0.07102801 0.27816999 0.17631662
-0.23752539 -0.11970439 0.18475138
0.09912653 0.14411353 0.18051106
0.09174453 0.05236215 0.16372356
0.12286281 -0.18337400 0.10352815
-0.26582631 -0.23545060 0.15339656
-0.29189330 -0.24600221 0.17789723
0.18166608 0.22258368 -0.06722328
-0.03399925 0.19256201 0.17684403
-0.26695561 -0.06923639 0.16216518
-0.00695786 -0.27416790 0.17663975
0.04321613 0.20170689 0.17661339
-0.00130297 -0.19017017 -0.03736224
-0.26978365 -0.19641705 0.16022483
0.05227044 0.11275645 -0.07662111
0.01609214 0.14317210 0.17208323
0.08453906 -0.05360227 0.16991793
-0.02643923 -0.15954493 0.16987815
-0.20058483 -0.18926063 0.17279434
0.08062692 -0.22187622 0.17582452
-0.23719233 -0.19971837 0.13553047
0.15618771 -0.35535619 0.15704212
0.08753940 -0.27343142 0.17175703
0.17080413 -0.17821857 0.18094799
-0.12020047 -0.11375357 0.17510132
-0.08482986 0.03897215 0.17024845
0.19361393 -0.00602536 0.16263111
0.11219031 -0.03477256 0.17717215
-0.09584679 -0.05836748 0.17820390
-0.01093002 0.15956075 0.16771069
-0.15065077 0.09729676 0.17820695
-0.12140820 0.02021702 0.17694880
0.10856272 0.00831981 0.17833257
-0.07497240 -0.18132515 0.15619265
-0.20646858 -0.02908376 0.17743468
-0.22249171 0.00602572 0.17644566
0.29470527 -0.00785195 0.16356850
0.19946323 0.20938776 0.09724839
0.18972079 0.21667780 0.15597577
-0.27590606 0.08979344 0.16473301
-0.27171448 -0.00790770 0.17309962
-0.14326996 0.14947835 0.15457255
-0.24887547 -0.15773691 0.16772324
-0.32167313 -0.03944740 0.17001392
-0.19981647 -0.33971769 0.17482434
0.11839151 0.32990998 0.15986569
0.28907087 0.30828369 0.17650259
0.07187733 -0.22242697 0.14751464
-0.07453316 -0.20218539 0.11031865
-0.00235988 -0.27515882 0.17395064
0.15716068 -0.21551931 0.17599739
0.02625931 -0.25844008 0.16837209
0.22177650 0.04376645 0.17282538
0.23121755 0.01677381 0.17692661
-0.18294367 0.27820462 0.17785698
0.19694614 0.32018816 0.17087987
-0.11447127 0.29837516 0.17386843
0.20530300 0.03294547 0.17637587
-0.18963340 -0.16351770 0.17667961
0.09645110 0.28291243 0.16642010
-0.13007502 0.26553017 0.17572768
0.16402014 0.31793383 0.16375537
0.21793406 0.19302312 0.17044866
0.27845368 0.27222982 0.17309180
-0.13217831 -0.18644071 0.16964781
0.20088294 -0.21427605 -0.17099854
-0.20316938 -0.14078540 0.17338444
0.19609311 -0.20354712 -0.00824605
-0.27714002 0.14820337 0.17183433
-0.11470588 -0.25875527 0.17418478
0.15165551 0.05178350 0.17110775
-0.02925592 0.09174199 0.15004748
-0.16335797 0.24675895 0.17748109
0.08955948 -0.24814844 0.18564160
-0.24040276 -0.18427278 0.18988355
0.04430718 0.06833027 0.17421785
-0.04971674 0.26521173 0.18296289
0.12284479 0.14719093 -0.03539764
0.13054627 -0.29312226 0.17192401
0.21692142 -0.17358848 -0.13204548
0.18616907 -0.12496961 0.16718404
-0.13204744 0.33178467 0.14961353
-0.18907036 0.08388126 0.18000013
0.11717071 -0.30800954 0.16703010
0.11613882 -0.13187978 -0.04827558
-0.10189714 0.10562155 0.16871123
-0.14969571 0.04943854 0.16279049
0.16072035 0.05677848 0.17346373
-0.24669257 0.00940742 0.17167592
0.00394971 0.24429218 0.16920771
0.15455070 -0.16356154 0.17067726
0.11612324 -0.02525830 0.17614630
0.13699247 -0.19233601 0.15382324
-0.17616692 0.21249796 -0.10831650
-0.07056776 -0.27360675 0.17341973
-0.00034391 0.09790932 0.17664066
-0.12420593 -0.04385166 0.17657205
-0.12084822 0.12700978 0.17936864
0.06239093 0.15615696 0.17236145
0.19944966 0.14479192 0.16934043
0.11923426 -0.02268635 0.16411048
-0.07435881 -0.19787571 0.11112482
-0.16442585 -0.08625758 0.15601771
-0.09373330 -0.27441800 0.17107098
-0.04575601 -0.06997158 -0.07342357
0.26215521 -0.01074367 0.16622716
0.24626054 0.10467413 0.14869533
0.04234413 -0.35792509 0.17529976
-0.02429837 0.15038887 -0.06088895
-0.15890691 0.36804861 0.16443707
0.20937210 0.29619205 0.17499264
0.26579040 -0.21598324 0.17573531
-0.05477219 -0.06071218 0.16554230
0.15642023 -0.15271038 -0.01775494
-0.05875824 0.07804043 -0.00080176
0.22225222 -0.13205114 0.17346369
0.11780129 0.01088881 0.17202827
0.10800271 0.13178486 -0.06004683
-0.06211635 0.03399747 0.17957398
0.25418246 0.15782173 0.16668198
0.16244844 0.19446114 -0.08716021
-0.05269267 0.22097507 0.16971019
-0.10748690 0.27708894 0.17528903
0.17527813 0.23604512 0.17329286
0.06297811 0.10857637 -0.04683098
-0.09342736 0.30129373 0.14061506
0.30228540 -0.18405941 0.16762540
-0.16942492 -0.05297781 0.15676670
-0.20392612 0.27019173 0.17658725
0.02871305 0.26756805 0.16312188
0.16396205 -0.01063126 0.13876793
-0.00452141 -0.01151183 0.03261026
-0.08225256 0.18486574 0.13048781
0.08182911 -0.09654152 0.17876397
-0.22471870 0.04300231 0.17897531
0.04694744 -0.19776624 0.13910116
-0.17817751 0.28089261 0.15938786
0.02382644 -0.29003590 0.17647618
-0.05973487 0.03968067 0.17461529
-0.26947469 0.14392224 0.17503975
0.12180106 -0.06539284 0.17809616
-0.15148966 0.07752577 0.17435066
-0.06399026 0.27951416 0.15009736
0.11984695 -0.09230275 0.16967928
0.14310007 -0.14679621 0.18308951
0.17397352 -0.07420888 0.17852080
0.21529526 0.20371783 0.17304470
-0.02360265 0.26457930 0.17363638
0.29018977 0.09067833 0.17843786
-0.10687544 0.29224309 0.17830881
0.11734889 -0.17693400 0.17193694
-0.22280301 -0.08338148 0.17181998
0.17394561 -0.17722073 0.14138688
-0.17887436 -0.01577278 0.16930948
-0.05999168 0.06398605 -0.05633591
0.24075375 0.22016664 -0.13301051
-0.15684956 0.25395387 0.17404489
-0.19715989 0.17005700 0.17769609
0.08765382 -0.25239420 0.17168072
-0.08640367 0.23244709 0.18328460
-0.13696858 -0.26791754 0.17690794
0.16595811 0.26759166 0.17602374
-0.16427828 0.04616858 0.17872468
-0.11851998 -0.15138346 0.16475686
0.14114574 -0.35562935 0.15977269
-0.13438311 -0.18611860 -0.02095761
-0.21193072 0.16704462 0.17613286
-0.11225460 -0.14656623 -0.05088231
-0.09974165 -0.33377799 0.15729453
-0.17981099 0.10162754 0.16893381
-0.12484598 0.11656722 0.16931865
0.01257782 -0.13532075 0.17072363
0.05007740 0.07209746 0.17414205
0.03476923 0.11890606 0.16500577
0.25292647 0.25536567 0.15984650
0.13586071 0.01788404 0.17134824
-0.06457841 -0.15428466 0.17473385
0.18541133 -0.18646339 0.09491673
0.07768284 -0.12219001 0.16412894
0.07484782 0.20899080 0.15450582
-0.18302469 -0.18526605 -0.05120789
0.22035064 0.18051729 0.17155263
0.00067566 0.02525147 0.16592404
0.05049092 0.24359949 0.16884090
0.13298929 0.13868012 0.12436474
-0.01853849 -0.32849357 0.14694542
0.00833609 0.12644424 0.17416382
-0.06496967 0.28204408 0.17664826
-0.09182250 -0.21841730 0.17880623
0.09600842 0.02590998 0.18040545
0.22891209 -0.16043025 0.13220088
-0.21380100 0.14383979 0.16734827
-0.22930549 -0.02855356 0.18039095
-0.11151107 0.04903708 0.19094081
0.10514931 -0.17240481 -0.08015785
0.11559927 0.19632503 0.18111730
0.07116408 -0.26900095 0.15830709
-0.07815187 -0.32865453 0.15137292
-0.11798222 0.28164488 0.17780080
0.04058229 -0.27640831 0.16677362
-0.08136030 -0.04996566 0.18200174
-0.11268316 0.03560125 0.17652847
0.27810219 -0.03349662 0.17108548
0.01716464 0.22299471 0.14615135
0.10624176 0.15498394 -0.09858295
-0.18774407 0.16447824 0.16961831
-0.17242724 0.19389692 -0.15604635
0.26761273 -0.02999492 0.14793369
-0.07433543 0.28046918 0.18069780
0.04997367 0.10249075 0.16841972
-0.06732328 -0.00669768 0.17502791
-0.15547585 0.06942984 0.17371488
0.20157236 -0.18851671 -0.08635066
-0.16838856 0.26768929 0.16738519
0.24683776 -0.11403458 0.17871156
-0.16612102 -0.14245078 0.17425427
0.00013513 -0.06817330 -0.03272694
0.23505324 -0.10072963 0.17800613
-0.13377570 -0.19739980 0.01838983
-0.09489533 -0.11117395 0.15724675
-0.10401576 -0.02316336 0.17952456
-0.05843487 -0.16037868 0.17622975
0.25781316 -0.09518535 0.15462634
0.18645978 0.18504041 -0.06488131
-0.07656936 -0.23779365 0.17496978
0.19574773 -0.23540901 0.15263484
0.02189064 0.06522654 0.17387655
0.16506130 -0.20832151 0.16275874
-0.30259690 0.13403714 0.17014524
-0.29103023 0.17246410 0.16590387
0.19342877 0.33721203 0.15606403
0.27208120 0.01851455 0.17537208
-0.15182233 -0.23313329 0.16134247
0.16383263 -0.06165643 0.15835774
0.12438776 0.09952768 0.16028187
-0.22807892 -0.27927190 0.16074632
-0.03019028 -0.18375710 0.01642141
-0.00437744 -0.20677961 0.18023480
-0.16353557 -0.20541984 0.15495619
-0.19172034 0.28097764 0.16960205
0.07630196 0.16403843 0.17770241
-0.31092501 -0.12007373 0.16907804
0.15602402 0.14306365 0.17021590
0.18691555 -0.16685566 -0.04660944
-0.15580656 -0.03350751 0.17796277
0.06656966 0.03825619 0.18096194
0.24394396 -0.14896414 0.17607224
0.02800981 0.00254169 0.19447111
-0.03287183 0.22257504 0.14894460
-0.16074239 0.27919054 0.15785162
0.25950035 0.34989694 0.16820604
0.20055676 -0.14332530 0.17416619
0.02264917 0.25175264 0.17736240
0.19556245 -0.32074147 0.17693867
-0.18641576 0.04790900 0.11874626
-0.03490185 -0.21490031 0.16807540
-0.11320831 -0.06764055 0.17849979
0.19410013 -0.05455250 0.17855665
-0.03388034 0.12055474 0.17549793
0.20505881 0.12958774 0.18324831
0.15017657 0.05784551 0.18207541
-0.17808971 -0.21509656 0.12335560
0.09321658 -0.30415761 0.16293985
-0.12529510 0.08946620 -0.03453400
0.07316317 0.01660586 0.15320241
-0.31416968 0.01287512 0.17236097
-0.05138426 0.01051135 0.17456259
-0.28391877 0.15029567 0.16560793
-0.16268015 0.07224870 0.18412070
-0.09162405 0.11447246 -0.07134099
-0.01825443 -0.32112774 0.16069470
-0.17526194 -0.17714217 0.17869674
0.11975418 0.30399758 0.17299895
0.09367384 -0.01067906 0.16692333
-0.16341469 -0.17214452 0.17642045
-0.18243255 0.05629346 0.17546248
-0.11265180 0.18437260 0.02656318
-0.11602750 0.11802877 0.17852117
-0.06869545 -0.14350340 0.16827971
0.18328352 -0.13153446 0.17450458
-0.19064552 -0.29657367 0.16589242
-0.15007491 -0.22973663 0.14339824
0.18006819 -0.15697944 0.17742468
-0.22832735 0.00256648 0.16974749
0.21153334 -0.24417852 0.17488042
-0.05072853 0.17279705 0.17878258
0.24909489 -0.18400387 0.16161755
0.11799626 -0.14613405 -0.05049189
0.04917252 -0.11083660 0.17890003
-0.01428286 -0.25252992 0.17178977
-0.03589235 0.03667717 -0.03846857
-0.06980372 0.20909327 0.17219639
0.15899754 -0.23599720 0.16917881
-0.12827879 0.15322553 0.17826974
0.06439267 -0.15071625 -0.07350801
-0.26773649 0.20576227 0.16469841
-0.25794423 0.22951873 0.16163413
-0.13246191 -0.04063699 0.18176787
-0.06499254 -0.17865531 0.17547506
0.21301776 0.06926607 0.18377903
-0.20836180 0.25091225 0.16523127
0.00787242 0.15949523 0.17865895
0.20894559 -0.17054999 0.17205532
-0.19751647 -0.03320052 0.17427218
0.26512179 0.24489538 0.17895480
-0.18740126 -0.17804684 0.17476931
-0.10131542 -0.33252460 0.15436052
-0.24435499 -0.15211512 0.16222034
0.03176897 0.07423137 0.17906329
-0.16703565 -0.13565499 0.17610940
-0.25432256 0.05668560 0.17186998
0.16136727 0.18630381 0.17147700
0.30019197 0.19974694 0.15241782
0.29864773 -0.23500553 0.17463702
0.06372210 0.00298092 -0.04077514
-0.06823393 0.18512858 -0.10755616
-0.05417449 -0.11835559 0.17862228
-0.14586937 -0.17356212 0.06021211
0.20711263 -0.03631965 0.18097162
-0.12460089 0.17856899 0.09578106
-0.07421616 0.35504472 0.17174797
-0.13815124 -0.15109684 0.10479666
0.13927309 0.19086419 0.17444366
0.14324278 -0.22178176 0.16941716
-0.07376885 -0.06867309 0.12955081
-0.20520745 -0.10987233 0.18479794
0.20947552 0.06317286 0.18113966
-0.13313079 -0.20116241 0.17322071
-0.08457653 0.10955843 0.17986001
-0.17737487 -0.17603573 0.13325273
-0.15635850 -0.02864444 0.17188740
0.24517292 0.10339746 0.16768681
0.05192540 -0.04879790 -0.01280867
-0.18037871 -0.25196722 0.16666122
0.18836796 0.16900396 0.17657439
-0.20845945 0.15334454 0.16027135
-0.16899282 -0.15065700 0.17675634
0.18141049 0.17920372 0.05417500
-0.15507412 0.17136632 -0.07552219
0.14546382 -0.01324202 0.17036000
0.23841211 -0.15273942 0.16993153
0.08977380 -0.00860085 0.17799461
0.23651591 -0.04241963 0.16523427
0.21989210 -0.09829301 0.15045005
0.16272157 0.02838420 0.15653510
-0.10994064 -0.16191308 0.17291938
-0.08084296 -0.02253816 0.17385949
0.09419554 0.04021936 0.17667982
-0.20462793 0.07750332 0.18027571
-0.18850155 -0.17865558 0.17337647
0.18348554 0.08186742 0.17924139
-0.30290785 -0.20147826 0.16207574
0.25231928 0.26369184 0.11955065
-0.01785491 0.30512106 0.16078927
0.20530513 0.27341238 0.16359136
-0.12703799 -0.18211722 -0.12685177
0.09374808 0.01860441 0.16881561
-0.23106015 -0.09379575 0.16534323
0.18270537 0.25744295 0.15231001
0.16217376 0.02209851 0.17617077
0.02787251 -0.06564422 0.15416405
-0.21374550 0.11348461 0.16801608
0.18537676 -0.23240162 0.17324059
-0.16758022 0.20968950 0.14909981
0.04482770 -0.12569878 -0.04733549
0.10073935 -0.27507958 0.17854854
-0.03012780 -0.16888550 -0.05543973
-0.03939434 0.16039488 0.17100352
0.01981054 -0.30515885 0.16970231
0.07422176 -0.09775177 0.16589077
0.20465450 0.24952576 0.17400613
-0.10884093 0.28291506 0.17301737
0.21989556 -0.18095303 0.16694388
0.07615240 0.13385467 0.16748464
-0.17249979 -0.31164625 0.16992564
0.07668611 0.19047950 0.16902594
-0.18399741 0.22477125 0.17043179
0.16866444 -0.11480684 0.17041904
0.13413274 0.27042943 0.17610420
0.08327585 0.04692499 0.17930768
-0.19721818 -0.11969062 0.17975064
-0.17637381 -0.23349658 0.08185115
-0.29157534 0.01334456 0.15392406
-0.00138278 0.13214958 0.17931801
0.21729225 0.14970222 0.16528600
-0.15436850 0.31255066 0.17181751
-0.25457206 -0.10459778 0.17688297
0.11461699 0.21915971 0.16812862
0.22550407 0.20683376 0.17191090
-0.13282019 0.27227512 0.17502187
0.20461673 -0.22373913 0.14657623
-0.17417395 -0.15336919 0.17754899
-0.17506590 -0.10701786 0.15247749
0.18744525 0.15884599 0.11784871
-0.04464786 -0.00685243 0.17014115
0.05603151 0.05360654 0.17219763
-0.01536096 0.11970467 -0.02738115
0.12233535 -0.20060252 0.17730877
-0.15080844 -0.20997274 0.12396891
0.14963312 -0.31209990 0.17285162
-0.07224941 -0.12823948 0.07262647
0.24920666 0.27370650 0.14434826
-0.03413934 -0.04526095 0.17466529
0.17333739 -0.19996971 0.16926023
-0.13674107 0.35359472 0.16272058
0.16057532 0.25204074 0.16582943
0.24234506 -0.25570819 0.16001824
0.05597477 0.25625598 0.18100886
0.21055405 0.21076199 -0.07247687
-0.14207822 0.19149885 0.07456259
-0.09488466 0.10169022 0.16747984
-0.16495660 -0.14597753 0.17316394
0.20086640 0.17294836 0.04924538
0.21668506 0.32475537 0.17086045
0.13957413 -0.17596960 0.05014271
-0.20218785 0.27301547 0.14488983
-0.19830972 -0.21174625 -0.16256692
-0.16756713 0.31959981 0.17215121
0.15489537 -0.01532301 0.17557387
0.02120779 0.34031361 0.18074927
0.05261007 -0.13846509 0.17900312
0.23540163 -0.05756414 0.16012797
0.20001245 -0.17480220 -0.15998171
0.19247884 -0.16753992 -0.13337290
-0.04417366 -0.27390310 0.16271131
0.14504804 -0.20698740 0.17557718
-0.05427280 -0.05575756 0.16400157
-0.22905682 0.09845645 0.17027400
0.12830627 0.00428995 0.18012784
-0.16189729 -0.25170431 0.12007280
-0.16654593 -0.22261381 0.17585020
0.22491702 -0.01546989 0.17727649
0.14963250 -0.15070766 0.06904493
0.10240135 0.30137128 0.16316570
0.05712546 0.20380026 0.17602949
0.21581438 0.27362305 0.15789929
-0.05490625 0.33169740 0.17474781
-0.02996361 0.14586699 0.16448481
-0.11754045 -0.31670284 0.16844337
0.05057247 -0.20104010 0.17973173
0.04293747 0.05789568 0.17497802
0.19932953 0.24292269 0.14984594
-0.15525791 -0.15547463 0.17426689
-0.30617818 -0.17514266 0.13868511
-0.11392082 -0.06419913 0.16789581
-0.29078835 0.03694629 0.18067594
0.03316427 -0.07677840 -0.02637337
0.04289150 -0.02339542 0.17946947
-0.17710531 0.02888455 0.17715624
0.28376135 0.24309184 0.16843194
-0.21243876 -0.08988624 0.17604204
0.15366966 0.19849648 -0.09817227
-0.11686105 -0.26324555 0.15593643
0.15144756 0.28972620 0.17433387
0.09011687 0.02462530 0.17306516
0.16285251 0.08902565 0.17569582
-0.01575236 0.01022160 0.17088278
-0.14038637 -0.04747958 0.16771993
-0.11605006 0.02326073 0.17468588
0.20018898 -0.11785875 0.13046543
-0.13045006 -0.15524141 0.16789371
-0.16655818 -0.16911933 0.09686941
-0.05923598 0.06385050 0.16936627
-0.13293797 0.01130216 0.19080614
0.20346144 0.26062104 0.15298578
-0.22721045 -0.15690486 0.17233990
0.20367445 0.25248677 0.17882860
-0.27203000 0.05224612 0.15069160
0.04645867 0.30498552 0.16834776
0.06374458 -0.21813849 0.16779299
0.20235932 -0.13519470 0.18095525
0.06786011 0.05312452 0.17258970
0.06052878 -0.26423234 0.17705384
-0.17856988 -0.20135736 0.00817338
0.14853795 0.31442988 0.17966810
-0.19699752 -0.17960362 0.18063530
0.28630331 -0.21172146 0.16757518
-0.02664375 0.31973657 0.17330724
-0.12264115 0.13241372 0.17914611
-0.16992116 0.04722086 0.17709585
-0.09724706 -0.18678483 -0.05215278
-0.06684272 0.20948754 0.17188935
0.16404583 0.20369610 0.06218227
0.12170877 -0.12152717 0.17100926
0.12943777 -0.01044393 0.17805439
-0.11257830 0.18048686 0.17705868
-0.12300852 0.07473732 0.17432332
-0.02023567 -0.14173147 0.17527343
-0.16052747 0.15512846 0.02832674
-0.21403676 0.24868208 0.14308904
-0.14866510 0.14120108 0.11596002
-0.11888322 0.13574490 0.16774552
-0.08696391 -0.21192934 0.17931861
0.32120264 0.01768649 0.16617328
0.07695831 0.24575122 0.15896392
0.02284649 -0.20092911 0.17055753
-0.16081554 -0.21357369 -0.16360757
0.17797124 -0.05339942 0.16353743
-0.07620865 0.29408950 0.15110713
-0.16729631 0.21793155 0.17418727
-0.05964805 -0.32736537 0.18059450
0.19992518 0.06084695 0.17616245
0.19119519 0.10755020 0.17249691
-0.17279793 -0.24038239 0.17745382
0.08821739 0.05723687 0.17646205
0.22794628 0.16605592 0.17131315
0.13891523 -0.02454865 0.17254917
0.15732318 -0.35097834 0.16328388
-0.20487484 0.07565112 0.16871805
-0.17630276 -0.25486621 0.17989704
-0.28305581 -0.06444083 0.17246370
0.24642752 0.09606947 0.17730384
-0.00138210 -0.08600793 0.17152844
-0.15234326 0.02006610 0.11668150
-0.11737240 0.22444764 0.17653452
-0.15525688 -0.19986592 -0.02839381
0.13005191 -0.08555643 0.10001299
0.01201317 -0.19244042 0.16212659
-0.19997929 0.16350257 0.17483650
-0.01382371 -0.21717274 0.15277010
0.02492338 0.05121323 0.06654596
-0.10332879 0.06741893 0.17869119
0.18386061 0.07032377 0.11652068
0.20301749 -0.25458479 0.17121167
0.15767127 -0.02286564 0.16855124
0.08860646 -0.13754879 0.16825096
0.05830364 -0.02607301 0.16737361
0.23371883 0.25727075 0.17667691
0.24407762 -0.01965708 0.16806321
0.21442744 -0.12143579 0.18039280
-0.18088433 -0.10262148 0.13499850
-0.10333054 -0.08372936 0.15788266
-0.05193728 0.32535115 0.16696484
-0.19171734 0.00048453 0.17426148
0.03958188 0.11948330 0.11951885
0.03256452 -0.16672711 0.16189799
0.06097092 0.20353322 0.18085523
0.16589740 -0.08517362 0.16228567
0.17975911 0.19275220 0.16914596
-0.10736027 0.30684924 0.16596830
0.23039395 0.12420376 0.18037225
0.22554170 0.05962371 0.17056625
-0.08682641 0.19329423 0.16499446
0.03704082 0.02011924 0.17582059
-0.09160798 -0.15378465 0.17991450
0.09773716 -0.30693981 0.14348853
0.01277830 0.36135113 0.15900834
0.11045219 -0.04088235 -0.06900993
-0.13794470 0.13165189 0.17743300
0.11257297 -0.14878491 0.17679967
0.23223901 -0.23326182 -0.16007714
0.07074320 -0.29358873 0.15832238
-0.14874682 -0.30186868 0.16586891
0.13890603 0.20463774 0.17098616
-0.14818573 0.26595753 0.17638159
0.06379274 -0.08308081 0.17800005
0.05485160 0.04162498 0.17822938
-0.05267791 -0.12790874 0.17683998
0.02440482 0.31348437 0.17037457
0.05637371 -0.14476070 0.15752448
-0.22388501 0.21148662 0.15253378
-0.16352327 -0.24585000 0.15698364
0.07595710 -0.24888094 0.17647807
0.20831013 0.01799749 0.17209597
0.17968430 -0.17897262 -0.14291158
-0.10972745 0.22101295 0.17595416
0.19822948 0.12824686 0.17662103
-0.21967591 0.19854432 0.13614021
-0.25047851 -0.09572896 0.16708723
0.08809891 -0.16733247 -0.06323011
-0.26611963 0.18147281 0.18034646
-0.14666766 -0.28661129 0.13874334
0.11982992 0.21148849 0.16514194
-0.00637408 -0.19894163 0.14490072
0.21428084 0.16532889 0.17139001
0.24656886 -0.09064118 0.15434352
-0.30904168 0.10341832 0.14607719
0.10762760 0.14419785 0.06771690
0.05548080 -0.25787887 0.14779049
-0.16860969 0.13541764 -0.06416232
-0.16831291 -0.04818192 0.17035301
0.01715541 -0.01883104 0.17637274
0.13459943 -0.32028908 0.16458161
0.12100480 -0.08039378 -0.06770385
0.28529221 0.08052938 0.15542561
-0.14234689 -0.09977296 0.17351209
0.14148730 0.30233687 0.18606748
0.04160748 0.28264603 0.17489856
-0.05120794 -0.19795156 0.14517452
-0.16551882 -0.19028486 0.17452823
0.06760003 0.29130024 0.17284995
0.18464747 0.19915406 0.08786627
0.00908337 0.19468601 0.15452312
-0.17551589 -0.11456469 0.11983466
-0.04370546 -0.00816081 0.17032947
-0.08443227 -0.05831623 0.17988734
0.04211046 -0.17801031 0.17602696
0.25025693 -0.22090802 0.14820309
0.27290803 0.04611631 0.15717311
-0.12204268 0.15352352 0.05917722
0.02791969 -0.10199062 0.17023969
-0.02766615 -0.26002049 0.17795140
0.07667507 0.27843383 0.17249006
0.25519478 0.14724666 0.17330445
-0.09271897 0.19090988 0.17791149
0.15804031 0.06257653 0.17853770
0.19116339 0.03047064 0.16250330
-0.07528956 -0.03075444 0.14760181
-0.19233786 0.00263212 0.16289765
-0.01609408 0.30406430 0.17579545
-0.02282258 0.07860608 0.17238083
-0.00759707 0.34116048 0.15290973
0.21428506 0.18216473 0.17208792
-0.07988459 -0.20201030 0.17417766
-0.14914429 0.01641001 0.18121386
0.13962901 -0.35901120 0.17185886
-0.12647730 -0.17194921 0.16763309
0.02518013 0.23925894 0.17681071
-0.11676064 -0.29569426 0.16308230
0.14512497 -0.32979429 0.17543925
-0.10200004 -0.18351662 0.18158603
0.18279684 0.20625527 0.17809318
0.16387212 0.01032870 0.14518407
0.11877446 -0.14082009 0.17468058
-0.14378893 -0.14561892 0.18098934
0.18628778 0.18566164 0.12793489
0.16634177 0.17269260 -0.07691801
-0.26852566 0.07589393 0.17858912
0.23424360 0.03092060 0.16495529
0.05179688 0.23594517 0.14234678
-0.18812951 -0.23005541 0.17460121
-0.19024968 -0.20280446 0.04715903
-0.21922161 -0.26817510 0.17358485
0.17740412 0.04592304 0.17622037
0.24528578 0.08080380 0.14755684
0.28654966 0.13821959 0.15865484
0.04066796 0.01870613 0.17757751
-0.18551485 -0.01350942 0.17042156
0.05492256 0.24647656 0.18900645
0.03707971 -0.25100109 0.17054304
0.19587451 -0.20295665 0.10347107
-0.05274805 0.24311200 0.18863809
0.01079287 -0.06455235 0.17866378
-0.12940426 0.16502964 0.16576922
-0.24074012 0.13222270 0.17684911
-0.07217088 0.01239371 0.14858299
-0.23862350 -0.08840527 0.17929354
-0.02632286 -0.21467447 0.17305957
-0.09290174 -0.19089845 -0.02723236
0.24181676 -0.18228374 0.17121452
-0.02294512 -0.08132409 0.16842185
-0.01626051 -0.12862989 0.17226070
0.17848921 0.26425394 0.16983911
-0.25233424 0.35063830 0.16235359
-0.23984572 -0.04134988 0.16753387
-0.03000233 0.22306064 0.16842033
-0.05934414 0.26473084 0.18229398
-0.01857252 -0.35162279 0.17576824
0.14872190 0.09604539 0.17899996
-0.20838417 0.26871753 0.17694944
0.17935079 -0.24345657 0.17016926
-0.31394345 -0.14547226 0.16528396
0.24823229 0.20536223 0.15053669
0.27489325 -0.10780457 0.17007379
-0.17620571 -0.19837627 0.15323743
-0.20314322 0.18088020 0.17668752
0.26427796 0.20372787 0.16638272
0.18960869 0.12323479 0.17280787
0.11364730 0.16732872 0.17047632
-0.05188482 -0.15794465 0.17813998
0.12460116 -0.18809611 0.16837801
0.10559678 0.03554217 0.16135433
0.15989842 0.24629305 0.16554013
0.32167351 -0.01963544 0.16439961
-0.20850280 -0.23551670 0.17492038
-0.10232075 -0.02838513 0.17631957
0.11915370 -0.08871068 0.17329672
0.04807466 -0.07365776 0.17390518
-0.17310666 0.13376662 0.17738296
-0.12425033 -0.32824668 0.16418158
-0.18018295 0.30453008 0.18171591
0.19808085 -0.10728034 0.16837202
-0.16365165 0.19069074 0.17684904
-0.11723319 -0.15446806 0.17228948
-0.10646071 0.18910605 -0.01743778
0.30321938 0.08438468 0.16202906
-0.10091419 -0.33411768 0.17645693
0.10115474 0.08398941 0.15669937
0.15976094 0.15360065 0.17882682
0.12876782 -0.17468625 0.17026494
0.05455210 0.27766973 0.17462604
0.21973470 -0.26341286 0.15605275
-0.25413406 0.20396468 0.18702528
-0.23724478 -0.12152991 0.15196063
0.09058198 0.11105774 -0.00336561
-0.16236207 0.04141075 0.17777824
-0.03076474 -0.26801497 0.17881507
0.27908719 0.09131773 0.16253665
0.03144983 0.27774519 0.16020387
0.08453994 -0.06853713 -0.04288708
0.09433015 0.24389459 0.17395280
0.17222206 -0.08784966 0.16998602
0.09681047 0.16790950 -0.00514138
0.02782789 0.10843002 -0.07643379
-0.27365938 -0.28544471 0.18324539
-0.15085497 0.24497271 0.18096660
-0.11127372 0.04096516 0.17104346
-0.14044322 0.18900762 0.17468330
0.18945299 0.22321057 -0.13867854
0.27609727 0.15129322 0.14977379
-0.04631888 0.17943071 0.17544971
-0.13530853 0.26534462 0.17081863
-0.02840633 -0.23010953 0.17575817
-0.12271473 0.00924666 0.17585489
0.27697051 -0.15906306 0.16796519
0.10534661 -0.30993971 0.15137570
-0.10492781 -0.24997276 0.17334060
0.08124179 -0.32734954 0.14371103
0.20755643 -0.16230601 0.05637039
-0.21919984 0.21927640 -0.15082948
-0.11723571 0.07511859 0.16139503
0.26937371 0.16332707 0.16287723
-0.20504159 -0.00444298 0.16888088
-0.13393350 -0.35004023 0.13153099
-0.26276031 -0.12395447 0.18013009
0.20408569 -0.19418319 0.12947898
0.01924921 -0.11935341 0.17587568
-0.14236891 -0.09216340 0.17180270
0.04475460 -0.30836105 0.15943500
0.15147911 -0.00455348 0.17253970
-0.28989494 -0.19802058 0.15557700
-0.13272135 0.09884257 0.15304108
-0.18346234 0.22184889 0.17533174
-0.16158174 0.05834059 0.17930824
-0.07582467 0.23589388 0.17157143
-0.13969697 0.13989739 0.16926953
-0.01161627 -0.33989984 0.17464726
0.06314547 -0.09002822 0.01843208
0.30538666 -0.13540576 0.15725975
0.06490563 0.24170443 0.15573123
0.09447228 0.22641382 0.14513502
-0.20003453 0.16244330 0.14559908
0.11739571 0.00512731 0.17388347
0.08765292 0.15843944 0.17504080
0.09896310 -0.03317661 0.17878273
-0.12330758 -0.15066077 -0.02071225
-0.05937052 -0.14973757 0.17007695
-0.10636707 -0.23517327 0.16570112
-0.22498059 -0.24813174 0.15574223
-0.18936515 0.12482318 0.16016531
-0.24318083 -0.12749800 0.16051051
-0.00238828 0.06118540 0.18035533
0.22486539 -0.03611196 0.17754465
-0.20292725 0.13919061 0.17516343
0.17656720 0.18004602 -0.06056583
-0.23429441 0.05375433 0.15114990
0.02166207 -0.23385867 0.11505008
0.28356043 0.05969711 0.17544422
-0.14333306 0.07770262 0.17240959
0.07562958 0.11045486 0.15069734
0.12008426 -0.19207394 0.10534235
-0.16857453 0.15331610 0.07057633
-0.13226663 0.25208342 0.18032241
0.07582276 -0.17534199 0.17582324
0.03816569 -0.07399073 0.18313131
0.23095450 0.15354812 0.16218275
0.09167061 0.14091375 0.11013539
0.04037634 0.07527462 -0.03512784
0.06052017 0.14319366 0.13389702
0.08815920 -0.10607345 0.16279936
0.24176873 0.24296209 0.16565174
-0.09999952 0.15594053 -0.06729688
0.20042259 0.22612154 0.17995036
-0.05566706 -0.00542903 0.18051475
-0.29720807 0.01452044 0.17309313
-0.04118969 0.22623564 0.17795394
-0.27478480 -0.20556098 0.17473929
-0.00812375 0.06110482 0.18256278
0.13297240 0.36161095 0.14711471
0.15940341 0.20805012 -0.03894908
0.07077222 0.26499766 0.17125607
-0.12819462 0.00678360 0.16004199
0.24699880 0.27885514 0.15620507
-0.13017601 0.32430035 0.17246725
0.15280968 -0.16335511 -0.04349339
0.10474412 0.18827903 0.17572284
0.13189396 -0.16780958 0.17651142
0.02401101 -0.13801594 0.17432071
-0.20754221 -0.09307947 0.17365934
0.06204631 -0.05339389 0.17646724
-0.14886828 0.11440479 0.17702666
-0.03554990 -0.05855404 0.17525120
0.13720295 -0.22325990 0.17559534
-0.09127980 0.29834220 0.17372312
-0.18403655 -0.18757337 0.17125291
-0.13628981 -0.01970079 0.17835289
-0.15943125 0.03164849 0.17561847
0.22109516 -0.23403181 0.18037951
-0.19038060 0.09881936 0.17804864
-0.29059318 0.18405266 0.17289291
-0.22613451 0.20836280 0.13584317
-0.24192472 0.18961041 0.17165112
0.06799555 -0.29996118 0.17206450
0.19492683 -0.10306244 0.16907902
-0.03544740 0.06154257 0.17503583
0.19780892 0.09793332 0.16130851
-0.21523476 -0.01220323 0.17489444
-0.12181449 0.20492783 0.16949844
-0.07922751 0.32868868 0.17170165
-0.23695950 0.25558758 0.16419794
0.28669730 0.01645435 0.15288764
0.18680556 -0.27367231 0.13635252
-0.05727974 0.16428643 0.17666642
0.10704114 -0.08189385 0.17658733
0.11720664 -0.33424881 0.17307042
0.13732651 0.28623182 0.17862438
-0.05644365 -0.09266626 0.17785093
0.06281896 0.20391145 0.07943415
0.08704276 0.14251365 0.17723921
-0.09910977 0.16186455 0.17042062
0.27584139 0.05369208 0.16280703
0.17784511 -0.15755323 -0.05284645
-0.06648152 -0.10746463 0.16348453
-0.18191426 0.18965884 0.11886235
-0.04220269 -0.30126566 0.17590049
0.21355410 -0.22236344 0.16847335
-0.03741211 0.07282791 -0.02401231
0.27740413 -0.04204771 0.17724454
-0.16682737 -0.20203890 0.07665540
0.02093308 0.10640159 0.17131725
-0.16936848 -0.14600202 0.17009264
-0.04061716 0.07549512 0.16533630
-0.21368533 0.19243716 -0.11176057
0.04654010 0.32785356 0.17231746
-0.04331982 -0.25959298 0.18186431
-0.21164715 0.18334050 0.13647790
0.28946334 0.16069201 0.18351223
-0.09539341 0.09891259 0.18098330
-0.18340418 0.20391195 0.04805307
0.05491190 0.16269436 0.17745072
0.16430792 -0.15361123 0.17875472
-0.19556291 0.19793577 0.18031795
0.04609274 -0.27388242 0.16616553
0.19450313 0.18874334 -0.11204217
-0.00238308 0.26984805 0.15251657
-0.26067549 -0.08250170 0.14155330
0.17437555 -0.02924418 0.17328855
0.09764880 0.33504680 0.18151970
0.18077900 0.18350588 0.12560974
-0.18387802 0.20936371 0.12203801
0.04401571 -0.15249452 -0.05854665
0.21813285 -0.08220265 0.16652659
-0.21933471 -0.01040610 0.14669320
0.20565297 -0.20983514 0.05264691
-0.11415112 0.04448348 0.17689064
0.23821209 -0.21344624 0.17870940
-0.16723183 -0.16273943 0.18030022
0.23131731 0.02054819 0.18662298
0.28414920 0.05244625 0.17687063
0.13951814 0.18283051 0.17910008
-0.22670662 0.01716258 0.14582700
-0.00873429 0.08270770 0.18063402
0.18332833 -0.04947405 0.16894214
0.12815058 0.06406339 0.16776808
-0.21846183 0.05484168 0.17695634
-0.08145665 -0.11642086 0.17713940
0.15702064 -0.28287798 0.17541508
0.06258231 0.32641780 0.14946714
0.14161488 0.31202424 0.16474034
0.15597126 0.12699670 -0.07763418
-0.11894894 -0.18221211 0.06923135
0.14413482 0.18156019 0.09103061
0.21227437 0.15435687 0.17224386
-0.16525234 -0.26968250 0.17154230
-0.22142686 0.21348706 0.15654606
-0.00121020 0.12046050 0.17002216
-0.22947092 -0.22251365 -0.12566869
0.16394466 -0.01711107 0.17785721
0.20822765 -0.10639755 0.15918134
-0.23860790 -0.30888793 0.17595693
0.04605649 0.35873836 0.16408756
0.21788047 0.24908897 0.13093516
-0.21590833 0.23170868 0.17973252
0.14845723 0.11322497 0.17205641
-0.04015268 -0.05793564 0.17894103
-0.09231984 -0.01958515 0.17575757
0.02466467 0.10702488 0.05422936
0.00951501 0.03988186 -0.05589168
0.19815943 0.19965532 0.06442694
0.25604904 0.08221896 0.16432464
0.09962033 0.21350712 0.17206270
-0.16657935 -0.20289111 0.08118097
0.15491049 0.09255788 0.16426449
0.21969013 -0.14873025 0.16622145
-0.01623692 -0.35673103 0.15607870
0.03920038 0.29766548 0.16951106
-0.01012674 0.07477061 0.16145542
-0.01321075 -0.02473211 0.17695762
0.01082732 0.28582332 0.16603401
0.21845834 0.05934088 0.16857299
-0.22958818 0.27135071 0.17654474
-0.14699140 0.17816448 -0.06414635
-0.06013144 -0.13951975 0.17395134
-0.23594117 0.04759702 0.16082814
0.03602369 0.24133447 0.16305807
-0.11336190 0.23441359 -0.13679549
0.12140983 0.08476032 -0.06128784
0.11042164 -0.23966748 0.16983758
-0.17020901 -0.13396615 0.17372610
0.07239830 0.08862018 0.17368080
0.10403995 -0.20069127 0.16480947
0.10984964 -0.02464662 0.16627471
-0.20587818 0.19474040 0.18089651
0.11044405 -0.07299608 0.17525133
0.26087514 0.14862293 0.15701132
0.04269477 0.21786734 0.17694581
-0.23436478 -0.20098561 0.15493727
-0.18599214 0.13329801 0.17954087
0.18136090 -0.30170852 0.14778268
0.19482665 0.17962150 0.15077691
-0.12322873 -0.07200526 0.17846659
0.01188895 -0.07508425 -0.03732154
0.16943787 0.14803760 0.17199820
-0.29741216 0.18296127 0.16163585
0.15843207 -0.13356403 0.17140110
-0.32720119 0.05839274 0.16664191
-0.18671808 0.32750148 0.17379351
0.13958688 0.19678771 0.16047183
-0.05409029 -0.04393318 0.17001674
-0.17103812 -0.04446635 0.17864178
-0.01481449 -0.05639043 -0.05476040
0.06054955 -0.03880640 0.17517994
0.17912076 0.17160106 0.16793898
0.06595973 -0.27921036 0.17816924
-0.27945092 -0.05605814 0.16183814
0.07870980 -0.08173040 0.17178635
0.19190238 0.14556143 0.12651177
-0.02080180 -0.13999520 0.17574890
0.02379575 -0.28059074 0.17542827
-0.04727006 0.24469432 0.13128760
0.16288395 0.18711831 -0.14287029
-0.20230311 -0.15336786 0.17657338
-0.19308695 0.09044011 0.15210384
0.13179167 -0.32813928 0.14420477
0.18650615 -0.14684805 0.17090291
-0.19977091 -0.10675739 0.16694100
0.10986666 -0.11054273 0.18105204
0.19527632 -0.28027114 0.17923552
-0.08996686 -0.11946367 0.17164078
-0.07041764 -0.18688500 0.18225496
-0.02174731 0.07650557 0.17288996
-0.01237231 0.00468160 0.17472878
0.09777035 -0.00059557 0.11547066
-0.20836613 -0.22950426 0.14619312
0.27146813 0.13531345 0.17162190
0.17546718 -0.09457722 0.16187589
0.12773785 -0.18036284 0.12807503
0.09632066 -0.03431854 0.17535286
-0.12539932 -0.02371429 0.17345795
-0.26408970 -0.12464509 0.19123621
-0.10306970 -0.13104621 0.16467138
0.09663367 0.26188654 0.17836136
0.10872769 0.07722322 0.16733228
-0.20328674 -0.14193764 0.16998352
-0.18578035 -0.03581510 0.17130819
-0.28973776 0.31276372 0.15149583
0.16743016 0.07178946 0.16874947
-0.14494026 -0.22537410 0.17609777
-0.03560760 0.29151985 0.17340644
0.16434000 -0.24976990 0.18210888
-0.11573381 -0.04075497 0.17979793
-0.01034035 0.15301721 0.17185771
-0.14083372 0.06487232 0.17491724
-0.18875588 -0.21992296 0.13332982
-0.08750288 -0.11179224 0.17917302
0.24254791 0.19028056 0.15246470
0.15187238 -0.03303474 0.15888621
-0.12187892 -0.12489363 0.16674942
-0.14497726 0.14071146 -0.06038882
-0.07193234 -0.10968803 0.17258543
0.01852837 0.18725905 0.16721541
0.02257176 0.27522913 0.17384908
-0.03072079 -0.25834271 0.17869537
0.02938498 0.08384933 0.14860752
-0.27602434 0.11709400 0.16894749
0.20150389 0.10299926 0.17444572
-0.03238956 -0.01360371 0.16896091
-0.21313386 -0.23681520 0.14408100
0.09652740 0.17565052 -0.07522704
0.10906410 0.35145265 0.17056498
0.18973851 -0.16128102 0.16598484
-0.15897539 0.00161210 0.16665123
0.14227250 0.18861285 0.15643890
-0.22008893 0.09467883 0.16263336
0.10435714 -0.13583696 0.17081884
-0.24269858 0.19359282 0.17321053
-0.10837986 -0.18579508 0.17859580
0.08746153 0.26449934 0.16577934
-0.12314820 0.08475730 0.17043597
0.20897721 -0.14158566 0.17367397
-0.16719851 -0.17382449 -0.07799570
0.07273536 -0.06374635 0.17207193
0.22631405 0.18716298 0.15939783
-0.03404240 -0.19630323 0.17799355
-0.00792920 -0.16826749 -0.03872032
0.23447257 0.07271360 0.17278752
-0.02899284 -0.12128396 0.17114122
-0.11318025 -0.16072500 0.13950936
-0.16374904 0.19757977 0.09533635
0.08344055 -0.28847426 0.13181426
0.15528043 0.28188187 0.14506263
0.16106135 0.15654953 0.14926304
-0.00231073 -0.02754694 0.17415416
0.07992876 0.06015306 0.17169167
0.01615769 0.05734754 -0.08157988
-0.06507687 -0.03126893 0.17281562
-0.02025815 -0.02605023 0.15794668
-0.03432613 -0.22360812 0.14234494
0.16742174 0.23255752 0.17704576
-0.11031297 0.18642579 0.11984629
0.19661058 0.06870800 0.16358846
0.15916710 0.18678010 -0.00207999
-0.04860131 0.00270084 0.19643198
0.23258804 0.24637930 0.13945532
-0.14827485 0.05257758 0.18005784
0.07920925 0.10852464 0.17117098
-0.23134078 0.15835014 0.18283619
0.14676866 0.10494017 0.16902523
0.01836884 0.36639065 0.16314854
-0.15612811 0.02017441 0.17413448
0.21067342 0.19139926 -0.17505242
0.26654258 -0.01537294 0.17127682
-0.00036056 0.07149340 0.16133243
-0.11678061 -0.04247060 0.17593765
0.06792025 -0.15339690 0.17796661
0.21405280 0.16843867 0.17381312
-0.14034446 0.20405297 0.18102951
0.13272278 -0.22583410 0.17878868
0.21057163 -0.00122074 0.17150402
0.20816681 -0.32390022 0.17351809
0.16463014 -0.12221076 0.15224084
-0.26671517 0.15345359 0.14715260
-0.02696060 0.30955327 0.17379694
0.10516738 -0.21777378 -0.05321785
0.04091298 -0.17182481 0.17578839
0.01963861 -0.35887080 0.16852438
0.16177008 -0.15831712 0.11215762
-0.17171854 -0.19715413 -0.06942610
0.19792825 -0.18491754 0.17487766
0.20177630 0.25520158 -0.16343750
0.15642010 -0.17507540 -0.07979020
-0.21674618 0.19361089 0.11490061
-0.05586775 -0.33215889 0.17149486
0.27817625 -0.02887803 0.17234848
0.27038461 0.12256758 0.18047091
0.05495156 0.12666476 0.03155600
0.02004114 -0.09130101 0.17668441
-0.15866810 -0.12442791 0.17396674
0.29747438 -0.11388029 0.16589682
0.13637879 0.26143482 0.18527950
-0.08138952 -0.20834427 0.17320508
-0.03781553 -0.33536434 0.18679234
0.20059885 -0.01662300 0.12809226
0.12290686 -0.09938750 0.17190051
-0.06308972 0.13684738 0.17499636
-0.21026130 -0.29002088 0.18246575
0.24065912 -0.27735063 0.15499215
-0.23225370 -0.16787717 0.17733519
-0.03959800 0.08871525 -0.06617893
-0.12395627 0.21110460 0.18392745
-0.09126013 -0.11131156 -0.00299788
-0.09770805 -0.17393397 -0.06832284
0.04838696 0.12087528 0.15509424
-0.25773886 0.00671321 0.17089878
0.15199958 -0.01815712 0.15528420
-0.15151353 0.19503716 0.15997881
-0.06497111 -0.20207022 0.16751680
0.09615784 0.14014429 0.15882446
0.21543042 0.10316599 0.18619312
-0.28106552 -0.10872363 0.16904753
0.14118968 0.10306264 0.15012942
0.08069700 -0.28668481 0.18183102
0.07987779 -0.14321747 0.16232160
-0.07124394 0.12895185 0.17127207
-0.03820781 0.06670020 0.16518003
-0.23136006 -0.20923083 0.17675781
-0.16902231 0.17015865 0.14078848
0.06586185 0.07400065 0.17101915
-0.12143213 -0.01005941 0.17087908
-0.28741917 -0.03151487 0.14064133
-0.24755186 -0.03708627 0.16474108
0.23138709 0.31175101 0.14933003
0.00126687 -0.17635718 0.16977385
0.17853844 0.25327393 0.17582722
0.15555948 0.20248027 0.17915449
0.03513683 -0.07134695 0.13972603
-0.19130723 0.19126904 -0.05243956
-0.05252420 -0.11761141 -0.05563054
-0.15185143 0.15988806 0.17069086
-0.11623740 0.24121268 0.17639521
0.19648024 0.00051419 0.17698950
0.28528041 -0.17990363 0.15463148
0.24069950 0.09592091 0.16935125
-0.12691984 0.05292384 0.17814565
-0.20727919 0.28564456 0.17418377
-0.15347421 -0.17960137 0.17403953
0.24429375 -0.02329193 0.17070152
-0.18123531 0.19885765 0.17054033
0.25057334 0.00932617 0.14768349
0.13306752 0.01919230 0.16121194
-0.24847269 0.02816868 0.15497600
-0.21349086 -0.01968420 0.18118297
0.22155765 -0.21842939 0.10705057
-0.17505699 -0.22402559 0.16624141
-0.16871282 0.22014020 0.17413104
0.19708237 0.06381295 0.17408745
-0.20475820 -0.26098752 0.17387991
-0.14818448 0.31867802 0.17786109
-0.14510706 0.20407003 0.18385448
-0.15200296 -0.12976363 0.17787205
-0.29273561 0.24477881 0.16123156
0.10592611 0.13936464 0.17064311
0.11251426 -0.06409581 -0.03832598
-0.01755387 0.00714239 0.17539670
0.17172959 -0.20438838 0.18340479
0.19620112 0.14274655 0.16429718
-0.23262170 0.10802354 0.16394503
0.24612658 0.02473000 0.17126442
0.20266028 0.19380072 0.17182022
0.01942983 0.35659111 0.17455763
-0.21407861 0.09261049 0.17095354
0.24428612 -0.07368530 0.14859638
-0.20153880 -0.26617756 0.17699641
-0.30133989 -0.12266009 0.15429460
-0.21362987 0.28130955 0.17562822
0.06611335 -0.30865234 0.16149385
0.01744572 0.28073150 0.17857607
-0.23924059 -0.24330027 0.13072559
0.00082162 -0.01084153 0.17063411
-0.27097511 -0.19610649 0.17133814
-0.21854992 0.18144712 -0.11762725
-0.12432054 -0.01915410 0.15411779
-0.00713715 -0.17589602 0.16908327
-0.15993926 0.17205401 -0.09599234
-0.14533311 0.14110416 0.15249260
0.12077937 0.05676147 0.17061381
0.16392246 0.18821621 0.03634427
0.21328169 0.18178290 0.16788535
0.10273501 0.06306566 0.18305662
-0.27356082 -0.00982616 0.17080379
0.14054769 0.17285979 0.09660186
0.10387285 0.08651315 0.16793814
-0.09834554 0.09958705 0.17495169
-0.11342140 0.30459520 0.16302794
-0.12163430 0.00299309 0.17272003
-0.15634345 -0.15524349 0.17425080
-0.14604956 -0.15822354 -0.07876496
-0.09264044 -0.15802196 -0.07983195
0.09396946 0.06730127 0.16501100
-0.22629629 -0.20099348 0.17167233
-0.13502041 0.33638588 0.16525419
-0.07966304 0.12109423 -0.06968126
0.15204710 0.28981861 0.15648648
0.12818457 -0.05470011 0.17456140
0.08716288 0.22415572 0.17405851
-0.02244160 0.07341386 0.16088887
0.17055801 -0.18075517 -0.07048520
0.15987852 -0.21823125 0.01997598
0.26680461 0.17799552 0.15924735
-0.09340236 -0.08722622 0.11723746
-0.15955606 -0.18021642 -0.04769183
0.14546555 -0.20333925 -0.06806276
0.03736172 -0.31965023 0.14562152
0.01676202 0.07806060 0.15411238
-0.22149412 -0.15703955 0.17709607
-0.06894065 -0.17631005 0.17302825
-0.00887135 0.34588283 0.17904168
-0.15948544 0.06357940 0.17154488
0.20469394 0.09375104 0.14244941
-0.18179816 -0.18556303 0.11637117
-0.29169765 0.10718769 0.17766641
0.15874404 -0.04585593 0.14779939
0.15979038 -0.15163910 0.17298827
0.24209337 -0.12157420 0.14659260
-0.05751614 -0.05063935 0.17421064
-0.23843330 0.00952336 0.17552115
0.08904121 0.27628535 0.17029639
0.22238930 -0.24401030 0.17391019
-0.09752978 -0.34474254 0.17767213
0.02702091 0.01647428 0.16563186
-0.02330235 -0.25923640 0.17076759
0.28688642 0.21827120 0.16261722
-0.23308411 0.11368326 0.16836001
0.31066161 0.07094029 0.17100476
-0.10028712 0.25480169 0.16571289
-0.12376305 -0.20265010 0.17235504
0.22289187 -0.14265575 0.15693967
0.17751318 -0.02282974 0.16446704
0.20948130 -0.15995961 0.17158943
0.07113614 0.22893453 0.17386372
0.02458048 0.19895516 0.17269920
-0.16631697 0.11587764 0.17742118
-0.16880469 -0.07143559 0.17654811
0.24152902 -0.11759637 0.17406563
0.23267081 0.10344809 0.14478135
-0.14639264 0.05789535 0.17136118
0.24483210 0.10016049 0.16263956
-0.22008614 0.22623502 0.16409278
0.09812254 0.03836485 0.17827046
0.09887432 -0.01391959 0.17143944
0.12475093 -0.03525892 0.17620404
-0.02610476 -0.14365911 -0.07307576
-0.01345947 -0.04911096 0.17487404
-0.30102697 0.21540570 0.16602483
0.18994637 -0.20112808 -0.04754591
0.17542642 0.03419319 0.17334856
-0.08130445 0.24699537 0.17172220
0.09806941 0.03089619 0.17145070
0.07115723 0.03446965 0.17401387
0.22348502 0.05808989 0.17969026
-0.01915685 0.19906177 0.16106918
-0.00957327 -0.21816814 0.17489573
-0.21021977 -0.21947640 0.17221463
-0.15614824 -0.15984008 0.17116025
0.04780622 0.04542480 0.17319362
0.23605020 0.00237446 0.17664374
-0.03234464 0.31755513 0.16738755
-0.01610502 -0.16272275 0.17551553
-0.17012423 0.07819573 0.17589639
-0.16066615 -0.03469639 0.16993843
-0.25684929 -0.04126426 0.17762505
-0.13031374 0.17789613 -0.07304128
-0.07281176 0.10511638 0.15664172
0.13287398 -0.28772926 0.17838855
-0.19002014 -0.08768244 0.16776682
-0.12649435 -0.22519398 0.17500316
-0.13228716 -0.06558931 0.15983507
-0.10934086 -0.16211328 0.18174282
0.21795972 -0.12080804 0.16552094
0.21281426 0.32392919 0.16349195
0.16834611 -0.16473505 0.17206568
0.18146989 -0.12218898 0.12230147
-0.11227695 -0.28894752 0.15410842
0.11014091 0.16843973 0.17643383
-0.14315037 0.18262008 -0.02672084
-0.22058938 0.21065438 0.17082785
0.15015361 -0.16803853 0.16664585
-0.07321091 -0.02913640 0.17409481
0.27626815 -0.05695200 0.16784658
0.08787522 -0.28237355 0.17284147
-0.07564513 0.21162413 0.16017930
-0.15997340 0.33542204 0.16717260
-0.15058240 0.14030039 0.17899318
0.17229950 -0.19598615 0.11134826
-0.11940849 -0.35847431 0.17278075
0.14141163 -0.17860050 0.16936979
-0.10275292 -0.22303453 0.17081788
-0.22743580 0.09684105 0.15938690
-0.16480893 0.30095533 0.15756343
0.20377922 0.15463933 0.12703238
-0.13058949 -0.06789882 0.17337738
-0.20156866 -0.02266459 0.17662409
0.13057928 -0.03003500 0.17628708
-0.08865524 0.18999381 -0.06188715
-0.07278185 -0.14595908 0.17734273
-0.00928994 0.00881238 0.17550200
0.03609095 0.12684464 0.18806326
0.02657322 -0.24366139 0.15212134
-0.09083365 0.08697405 0.17126565
-0.30612808 0.14114156 0.17689756
0.23146400 0.15176529 0.17929046
0.10071003 0.00990048 0.17440404
0.00184676 0.03423623 0.17156407
-0.07329488 -0.14792123 0.18017145
0.26423806 -0.09429099 0.17769581
-0.07039167 0.04324304 0.17851858
-0.12477645 -0.11288906 -0.04926926
0.21412423 -0.03936752 0.16957368
0.30058065 -0.00738493 0.18450543
-0.01609748 0.18373621 0.18358643
0.29205248 0.17080756 0.15824506
-0.11136327 0.28971133 0.18077058
0.17533419 -0.05090483 0.14119688
-0.14914307 -0.14970446 0.03615329
-0.23322308 -0.00754269 0.17203923
-0.25430456 -0.26261529 0.16141288
0.24075377 -0.28054488 0.16457178
0.16836089 0.05772954 0.17250746
