1356
-0.18235643 0.01291181 -0.13470399
-0.13006331 0.01344096 -0.13470399
0.07217256 0.01683367 -0.13470399
0.15472358 0.01918947 -0.13470399
-0.16087623 0.01937840 -0.13470399
0.16014649 0.01962101 -0.13470399
0.09165236 0.02018045 -0.13470399
0.06032404 0.02260674 -0.13470399
-0.15090513 0.02437731 -0.13470399
-0.06569928 0.02682055 -0.13470399
-0.11615273 0.03068092 -0.13470399
-0.02271563 0.03091632 -0.13470399
-0.15512080 0.03239600 -0.13470399
0.11961995 0.03422973 -0.13470399
0.07763234 0.03425111 -0.13470399
0.06838594 0.03623665 -0.13470399
-0.17395110 0.03745259 -0.13470399
0.00883801 0.03959098 -0.13470399
0.02977509 0.03978449 -0.13470399
-0.10981560 0.04498972 -0.13470399
-0.04893843 0.04510854 -0.13470399
0.16307038 0.05037164 -0.13470399
0.04316716 0.05196417 -0.13470399
0.12119318 0.05201298 -0.13470399
-0.15483135 0.05417509 -0.13470399
-0.08958780 0.05479081 -0.13470399
0.14709805 0.05826829 -0.13470399
0.07684695 0.06071184 -0.13470399
-0.17964187 0.06467613 -0.13470399
-0.04140297 0.06598216 -0.13470399
-0.12152959 0.06664862 -0.13470399
0.13295285 0.07334065 -0.13470399
0.17742184 0.07404239 -0.13470399
0.12772553 0.07428863 -0.13470399
-0.06672194 0.07468507 -0.13470399
0.04003844 0.07502350 -0.13470399
0.01360804 0.07663734 -0.13470399
-0.20143254 0.07701571 -0.13470399
-0.05750349 0.07896964 -0.13470399
0.13081419 0.08038802 -0.13470399
-0.13089575 0.08079100 -0.13470399
-0.16719267 0.08255612 -0.13470399
-0.05166409 0.08350044 -0.13470399
-0.01214928 0.08462298 -0.13470399
-0.11533573 0.08509156 -0.13470399
0.03490851 0.08631697 -0.13470399
0.01722606 0.08681777 -0.13470399
0.12153082 0.08836494 -0.13470399
0.14407679 0.09195566 -0.13470399
0.03677204 0.09221151 -0.13470399
0.00539273 0.09455152 -0.13470399
-0.12144174 0.09472273 -0.13470399
-0.09603997 0.09550349 -0.13470399
0.07094321 0.09922353 -0.13470399
-0.19586897 0.10128853 -0.13470399
0.00389261 0.10134032 -0.13470399
-0.19549638 0.10438327 -0.13470399
-0.14795244 0.10533196 -0.13470399
-0.02385447 0.10558832 -0.13470399
-0.17255844 0.10745710 -0.13470399
-0.00677141 0.10755569 -0.13470399
0.15414770 0.10787801 -0.13470399
-0.19329505 0.11242152 -0.13470399
0.04665811 0.11248790 -0.13470399
-0.14566490 0.11257781 -0.13470399
0.12671959 0.11341660 -0.13470399
0.10894750 0.11832024 -0.13470399
-0.02449817 0.11872161 -0.13470399
0.08162998 0.12037671 -0.13470399
-0.17445613 0.12050551 -0.13470399
0.06863625 0.12075769 -0.13470399
0.12667686 0.12092318 -0.13470399
0.11021557 0.12743804 -0.13470399
0.03730474 0.12950015 -0.13470399
-0.11675967 0.12998089 -0.13470399
-0.17188217 0.13367242 -0.13470399
-0.12729932 0.13561855 -0.13470399
-0.06336990 0.13584431 -0.13470399
-0.10520167 0.13653342 -0.13470399
0.06509759 0.13687094 -0.13470399
-0.07753027 0.14536785 -0.13470399
-0.11458492 0.15027401 -0.13470399
0.06344146 0.15167560 -0.13470399
-0.04721141 0.15197062 -0.13470399
0.02255228 0.15224056 -0.13470399
-0.13666053 0.15264519 -0.13470399
-0.11759442 0.15770151 -0.13470399
-0.06153180 0.16372284 -0.13470399
0.12195390 0.16597892 -0.13470399
0.11219691 0.16612810 -0.13470399
-0.11723495 0.16621299 -0.13470399
0.05410044 0.16824745 -0.13470399
0.00273897 0.16935267 -0.13470399
0.02701900 0.17094520 -0.13470399
0.04589054 0.17186813 -0.13470399
-0.03984460 0.17788142 -0.13470399
0.00329285 0.17903890 -0.13470399
0.05322734 0.18561207 -0.13470399
0.01238986 0.18675008 -0.13470399
0.04935914 0.18759170 -0.13470399
-0.02421607 0.19899178 -0.13470399
0.00496099 0.20053907 -0.13470399
0.07200028 0.20376448 -0.13470399
-0.02225663 0.20870818 -0.13470399
-0.16588077 -0.13372374 -0.13470396
-0.08341265 -0.19918425 -0.13470392
0.19021937 -0.11260922 -0.13470379
0.20508999 -0.08644466 -0.13470377
-0.22255927 0.02313753 -0.13470344
0.22295375 0.01281911 -0.13470340
-0.02467667 0.22292481 -0.13470340
-0.22068460 0.03194403 -0.13470158
-0.21113649 0.08926650 -0.13469119
-0.22108923 0.03867459 -0.13469031
0.18784884 -0.13239941 -0.13469021
0.05030047 0.21958688 -0.13468774
-0.00738497 0.22747691 -0.13468075
0.00077720 -0.22858748 -0.13466462
-0.00826058 -0.23011823 -0.13463983
-0.02468831 0.22856094 -0.13463666
-0.23051235 0.00342996 -0.13463652
0.01047465 0.23172179 -0.13456267
0.15443890 0.17199281 -0.13437609
0.06493819 -0.22165173 -0.13435192
0.15740791 0.16887733 -0.13434064
0.22554523 0.04739589 -0.13428889
-0.16651782 -0.16055827 -0.13418061
0.16260834 0.16532096 -0.13404691
-0.15141582 -0.17730780 -0.13395056
0.22598758 -0.05730433 -0.13393402
-0.21603474 -0.08578502 -0.13383354
0.20309724 0.11499038 -0.13338836
0.21177466 0.09905166 -0.13335496
0.10718411 -0.20679663 -0.13330078
0.21937774 -0.08251056 -0.13319984
-0.18881488 -0.13599667 -0.13287829
-0.20100278 -0.11889966 -0.13275854
-0.04750768 0.22930792 -0.13268083
0.23455814 0.01522829 -0.13263549
0.23490697 0.00343448 -0.13262905
-0.01123781 0.23490569 -0.13255891
0.21818957 0.08721509 -0.13221364
-0.23033386 -0.04242832 -0.13211642
-0.21761328 -0.08770961 -0.13207935
0.03004939 -0.23313479 -0.13205390
-0.23067001 -0.04072958 -0.13199067
0.06536402 -0.22636037 -0.13190158
-0.13101877 0.19608928 -0.13182695
-0.23509304 -0.01851954 -0.13150612
-0.15161575 0.18115225 -0.13149531
-0.07702641 0.22258593 -0.13093217
-0.10510833 -0.21128877 -0.13080956
-0.15887128 0.17484377 -0.13041624
0.22649767 -0.06504001 -0.13035136
0.22978556 -0.05294520 -0.12991723
-0.16389498 0.17006235 -0.12971443
0.09182364 -0.21715415 -0.12931381
0.20506145 -0.11680821 -0.12925382
-0.11340065 0.20736845 -0.12841693
0.23549202 0.01908275 -0.12808223
-0.18759051 -0.14363526 -0.12775770
-0.14969361 0.18299720 -0.12705265
0.23334260 0.03342389 -0.12701100
-0.02309988 0.23528129 -0.12665828
-0.13895111 0.19128743 -0.12561379
0.15806867 -0.17598137 -0.12392342
-0.19511244 0.13366121 -0.12389922
0.23453312 0.03039144 -0.12379161
0.18524499 -0.14700364 -0.12371309
0.19742218 0.13005579 -0.12355791
0.05279075 0.23033307 -0.12352158
-0.20735696 0.11369301 -0.12340085
0.16745336 0.16691527 -0.12321254
-0.21525443 -0.09798305 -0.12307267
0.00182895 0.23651633 -0.12281443
0.23395397 0.03464704 -0.12248053
-0.16861717 -0.16595003 -0.12242565
0.02714661 0.23483191 -0.12238441
0.23097789 -0.05091072 -0.12212252
-0.11386083 0.20735803 -0.12162801
-0.23641519 0.00818758 -0.12138739
-0.00995007 0.23635903 -0.12066643
0.15093216 -0.18219754 -0.12060057
0.03348747 -0.23423669 -0.12014723
-0.18526152 -0.14716837 -0.12011626
0.04997977 0.23100886 -0.11996618
-0.15763269 0.17623352 -0.11985579
0.19046810 -0.14036533 -0.11955553
0.11781398 0.20507441 -0.11933225
0.18024464 -0.15288894 -0.11897510
-0.22294602 0.07915272 -0.11854799
-0.23550521 0.02257614 -0.11740188
0.23189457 0.04682019 -0.11707770
0.20422301 0.11934020 -0.11693542
-0.18213439 0.15101311 -0.11611165
0.23635751 0.01010650 -0.11605247
0.16893438 -0.16543408 -0.11605229
-0.23271722 -0.04261764 -0.11517937
0.08106193 -0.22226417 -0.11437313
-0.23645957 0.00780961 -0.11413182
0.01695969 0.23579861 -0.11376217
-0.23378462 -0.03641696 -0.11308973
0.21853220 0.09067217 -0.11269324
0.22022589 0.08647658 -0.11254063
0.17944771 -0.15368976 -0.11212565
-0.19862188 -0.12854977 -0.11204032
-0.20725332 0.11414655 -0.11203800
0.19464524 0.13422269 -0.11173227
0.12363484 -0.20171368 -0.11172331
-0.00170113 -0.23659106 -0.11160814
-0.23650429 0.00600022 -0.11157783
-0.07117955 -0.22566871 -0.11149107
0.14018008 0.19037682 -0.11140781
-0.22863923 -0.06081152 -0.11099942
0.16300276 0.17131442 -0.11070974
-0.20703490 -0.11454752 -0.11009663
-0.11579835 0.20634584 -0.11004717
0.18815801 0.14346443 -0.10990311
-0.18328340 -0.14960982 -0.10975184
-0.10327871 0.21281111 -0.10963809
-0.23657431 0.00247253 -0.10957600
0.20414664 -0.11942141 -0.10951225
-0.19076008 -0.13998181 -0.10900212
0.07321565 -0.22500023 -0.10811727
-0.20443985 0.11909393 -0.10792940
0.19929214 -0.12718487 -0.10723936
0.08461159 -0.22092839 -0.10718355
0.18615742 0.14601387 -0.10711113
-0.19444090 0.13483049 -0.10662138
0.18991978 -0.14109761 -0.10659882
-0.09178132 0.21807235 -0.10641958
-0.21252343 0.10400556 -0.10603812
-0.10889280 0.21007495 -0.10523603
-0.01496300 -0.23627537 -0.10482963
-0.18980809 -0.14122425 -0.10451012
0.22923522 -0.05907349 -0.10415362
-0.12884013 0.19842246 -0.10391316
0.08066299 -0.22285542 -0.10349349
0.17808379 -0.15639813 -0.10299456
0.17700110 0.15726833 -0.10253099
0.04959154 -0.23161183 -0.10246867
0.08617033 0.22096381 -0.10243414
0.06004669 0.22941738 -0.10234322
0.14591344 -0.18737341 -0.10231135
-0.22653712 0.06828575 -0.10196622
0.09270392 0.21773362 -0.10193932
0.06545582 -0.22776029 -0.10185391
0.13856015 -0.19237015 -0.10180570
0.17504615 0.16079731 -0.10050762
0.19772260 -0.13264038 -0.09919163
0.13949218 0.19275907 -0.09904542
-0.03536246 -0.23445775 -0.09889113
0.23309933 0.04019130 -0.09875041
-0.20554139 0.11846879 -0.09873772
-0.19451635 0.13623582 -0.09853331
0.08684805 0.22195464 -0.09847821
-0.17078893 -0.16542244 -0.09830939
0.20799188 -0.11285152 -0.09770863
-0.21200447 0.10558144 -0.09727818
0.23776662 -0.01558454 -0.09711159
0.13304904 -0.19737989 -0.09710161
-0.23370999 -0.04072978 -0.09689831
-0.22609168 -0.07334129 -0.09646909
-0.20321564 -0.12442981 -0.09601039
-0.23825356 -0.02084248 -0.09590574
-0.21620430 0.10048476 -0.09553380
-0.18671808 -0.14942226 -0.09525730
-0.21364811 -0.10501944 -0.09513728
0.16276641 0.17780349 -0.09504704
-0.16502964 0.17444400 -0.09476890
-0.00700259 -0.24002245 -0.09415685
0.04010714 -0.23492301 -0.09383578
0.14560807 -0.19043362 -0.09295937
0.20710768 -0.12078147 -0.09287117
-0.23639038 0.03318701 -0.09276657
0.20722637 0.12192681 -0.09242486
-0.14433677 -0.19303545 -0.09207445
0.23420174 0.05956801 -0.09200326
0.06019828 -0.23359798 -0.09161819
0.06050087 0.23492971 -0.09123578
0.23510328 -0.05590431 -0.09111814
-0.04938997 0.23602277 -0.09102267
0.22854465 0.07479618 -0.09075628
0.03639093 -0.23838551 -0.09058865
-0.18344060 0.15952814 -0.09056322
0.07185418 -0.23045501 -0.09051811
0.04519491 0.23898435 -0.08984502
0.15782014 0.18942666 -0.08970769
-0.23614159 -0.06763388 -0.08943403
-0.07713562 0.23174036 -0.08889143
-0.24567401 -0.02171841 -0.08884361
0.08379103 -0.23117618 -0.08869469
-0.07023080 -0.23777559 -0.08840354
0.16673315 0.18447158 -0.08823849
0.19872703 -0.14678347 -0.08793767
-0.22191149 0.11455825 -0.08768325
-0.17863013 0.17527369 -0.08755366
0.21294962 0.12955718 -0.08732785
-0.24829066 -0.02737684 -0.08732291
0.24644652 0.05429259 -0.08694010
0.07449525 -0.24145937 -0.08688402
-0.14740919 0.20630381 -0.08681124
-0.21660081 0.13209750 -0.08672618
-0.08024915 -0.23973966 -0.08671536
-0.14437845 -0.20848976 -0.08654509
0.19420908 0.16099878 -0.08647392
-0.19142659 -0.16536811 -0.08630893
0.11257579 0.22730136 -0.08630783
0.25222421 -0.01485922 -0.08626086
0.08162151 0.24119040 -0.08613491
0.04382892 -0.25055960 -0.08606135
0.22207420 0.12167913 -0.08605367
0.16541103 -0.19336756 -0.08602323
-0.18410593 -0.17429094 -0.08591589
0.15459283 -0.20296253 -0.08588660
-0.24882707 0.05646675 -0.08584896
0.23744811 -0.09292798 -0.08582163
0.15800536 0.19935675 -0.08579525
0.12826385 0.22017613 -0.08567907
0.21252652 -0.14204137 -0.08555034
0.07040522 0.24422334 -0.08549186
-0.10202005 -0.23357108 -0.08528736
0.22007130 0.12926757 -0.08487911
0.06561461 0.24575174 -0.08458687
-0.22475286 -0.12149062 -0.08426046
-0.23865107 0.09066530 -0.08414074
-0.10752022 0.23144032 -0.08409119
-0.18226607 -0.17918840 -0.08404997
-0.23250918 -0.10646476 -0.08398987
0.24301247 -0.07992116 -0.08386511
0.25452426 0.00899185 -0.08383991
0.22256280 0.12434231 -0.08373861
0.14396363 -0.21157067 -0.08370842
-0.19195265 0.16886945 -0.08369184
0.17346551 0.18677787 -0.08303236
0.25000292 -0.05469325 -0.08296154
0.15971594 0.19970985 -0.08258912
-0.10036006 -0.23546347 -0.08196685
-0.22279797 -0.12606867 -0.08192112
0.16687778 0.19397424 -0.08091789
0.22915320 0.11424048 -0.08070556
-0.25016201 -0.05472559 -0.08068038
0.05556114 0.24974807 -0.08061960
0.17238191 -0.18947437 -0.08049697
-0.24664848 -0.06849330 -0.08007146
-0.25483176 -0.02492741 -0.08002654
-0.00443803 -0.25596878 -0.07972509
0.10419717 -0.23402116 -0.07909514
-0.12664516 -0.22257599 -0.07889027
-0.25568673 0.01370863 -0.07863032
0.22015938 -0.13092922 -0.07813786
-0.01323299 0.25547162 -0.07808731
0.24054369 0.08732746 -0.07753658
-0.04788040 0.25161856 -0.07716580
0.09893323 -0.23627116 -0.07706080
-0.25541732 -0.01938982 -0.07665358
0.06691433 0.24680959 -0.07656942
0.23116468 0.11047146 -0.07587878
-0.12041240 0.22596666 -0.07559726
-0.24939859 0.05870545 -0.07533875
0.14699759 0.20933793 -0.07498039
0.24966751 0.05750969 -0.07462388
0.23775497 0.09535384 -0.07441547
0.18737453 0.17460521 -0.07396264
0.25260508 -0.04151420 -0.07357965
-0.10772707 0.23193371 -0.07339168
0.25044471 -0.05281616 -0.07307374
-0.24560732 0.07286362 -0.07283907
-0.07752918 0.24362586 -0.07269652
-0.10011245 0.23531263 -0.07148729
-0.16511145 -0.19597442 -0.07126115
0.24103849 -0.08684253 -0.07102804
-0.25451785 -0.02960675 -0.07087146
0.25102922 -0.04952391 -0.07080330
-0.11048558 -0.23114628 -0.07004444
0.08488008 0.24130005 -0.06983235
-0.14211899 0.21259136 -0.06965060
0.19212991 0.16930506 -0.06949461
0.19641235 0.16454813 -0.06906209
-0.04604203 -0.25202805 -0.06895659
0.06847125 0.24624959 -0.06890701
-0.24902879 0.06026052 -0.06873097
-0.09246813 -0.23894283 -0.06872818
-0.02278239 -0.25520763 -0.06802689
0.12440047 -0.22400193 -0.06760237
0.24386477 0.07660924 -0.06683099
-0.24906239 0.06012002 -0.06673297
-0.18367203 -0.17866987 -0.06618888
-0.25590846 0.01171548 -0.06543678
0.23091112 -0.11092574 -0.06392124
0.12908028 -0.22134273 -0.06341793
0.22043274 0.13037290 -0.06339622
-0.02002989 -0.25541028 -0.06317726
0.13505167 -0.21777265 -0.06260541
-0.07162318 0.24538411 -0.06248333
-0.25014108 0.05545652 -0.06236737
0.06418629 0.24733822 -0.06206768
-0.03774989 -0.25343651 -0.06164873
-0.24548954 -0.07327216 -0.06070030
-0.23992664 0.08988434 -0.06060890
0.04202190 -0.25273222 -0.06029540
0.24986418 -0.05509298 -0.06011346
-0.19243002 -0.16921198 -0.06006839
-0.10098117 0.23477702 -0.05979789
0.25600538 0.00958929 -0.05935626
-0.17137195 0.18982024 -0.05917571
0.08139150 0.24226920 -0.05915701
0.02242133 -0.25522280 -0.05909381
-0.22545786 -0.12178663 -0.05896380
0.19218600 -0.16899690 -0.05886514
0.19267894 -0.16842940 -0.05855651
0.14264891 0.21201475 -0.05849229
0.23097630 -0.11077713 -0.05844402
-0.08223795 -0.24264441 -0.05840965
-0.15872337 -0.20115988 -0.05829396
-0.23404506 -0.10430253 -0.05819523
0.22932677 -0.11421706 -0.05817237
-0.05653394 0.24942341 -0.05804374
0.17890927 -0.18343943 -0.05801352
-0.24056286 0.08815555 -0.05762056
0.24527381 0.07235032 -0.05755383
-0.08527897 0.24099296 -0.05716930
-0.19294798 0.16862956 -0.05663611
0.09224716 -0.23902267 -0.05640914
-0.17499451 0.18626072 -0.05635723
-0.20393911 -0.15512137 -0.05574242
-0.12509353 -0.22358672 -0.05547794
-0.24603960 0.07134710 -0.05537372
0.07894577 -0.24374895 -0.05534161
-0.14388363 0.21170393 -0.05524956
0.08562501 -0.24151151 -0.05509986
-0.24022397 0.08907637 -0.05481357
-0.23424627 -0.10384980 -0.05430815
-0.21401627 0.14086246 -0.05428881
0.24638970 0.06905553 -0.05406697
0.25544533 0.01781298 -0.05374951
-0.02057696 0.25494534 -0.05292271
0.24745223 0.06582074 -0.05279337
0.24751535 -0.06477913 -0.05274868
-0.10743691 0.23197167 -0.05252792
-0.00033017 0.25555947 -0.05226088
0.17114080 0.19026433 -0.05208576
-0.15330021 -0.20532922 -0.05142567
-0.16471887 0.19583425 -0.05139754
0.21089911 -0.14543813 -0.05083743
0.06362724 0.24748930 -0.05079492
-0.16009712 -0.20007171 -0.05055220
0.15706067 0.20204146 -0.04936941
-0.25607568 0.00798918 -0.04915136
-0.22414376 0.12409841 -0.04851227
-0.03628683 -0.25364190 -0.04829746
0.25474599 -0.02717004 -0.04819169
0.21950802 -0.13214229 -0.04818120
-0.24755572 -0.06585985 -0.04795134
-0.02228052 0.25489223 -0.04771794
0.09099580 0.23915730 -0.04724831
0.21405073 0.13938221 -0.04708033
-0.08434370 0.24137889 -0.04687297
-0.22979414 0.11327558 -0.04613278
0.00909709 -0.25602594 -0.04603638
-0.09362888 -0.23847800 -0.04599578
0.07698265 -0.24435866 -0.04512341
-0.12180062 -0.22542241 -0.04490839
0.23763382 -0.09493444 -0.04484881
0.24271885 -0.08153456 -0.04479453
-0.24033996 0.08876119 -0.04477485
-0.23480342 -0.10259720 -0.04472856
0.04216229 -0.25270995 -0.04449826
0.19446112 -0.16635446 -0.04448465
-0.22938338 -0.11417193 -0.04448346
0.13949522 -0.21492942 -0.04431862
0.10569574 -0.23342703 -0.04415919
0.05226349 0.25015247 -0.04389798
0.12038109 0.22576214 -0.04362038
0.19940291 0.16081953 -0.04360047
0.09868343 -0.23645367 -0.04359315
-0.23270686 0.10721356 -0.04339072
0.21424568 -0.14010952 -0.04278955
0.24434735 -0.07642372 -0.04254663
0.24952054 0.05812317 -0.04240893
0.24175192 -0.08439405 -0.04169257
0.09368418 -0.23847765 -0.04136550
-0.24105620 -0.08691275 -0.04076604
-0.03210652 -0.25417534 -0.04035445
-0.05923555 0.24890029 -0.04003595
0.11425291 -0.22934520 -0.04002576
0.20539269 0.15252943 -0.03981112
-0.18672645 0.17548172 -0.03980017
-0.25549567 -0.01881095 -0.03945320
0.25071147 -0.05119173 -0.03927776
0.23293191 -0.10642086 -0.03913843
0.25539327 -0.02028373 -0.03846487
0.13460936 0.21747409 -0.03818215
-0.25093138 -0.05172677 -0.03810263
0.15775830 0.20146382 -0.03735635
0.17187668 -0.19004716 -0.03699385
-0.19916119 -0.16122939 -0.03654834
-0.10951381 -0.23160915 -0.03601065
0.00144628 0.25591615 -0.03533455
-0.21523800 -0.13901792 -0.03476764
-0.24646558 0.06985273 -0.03465396
-0.08300147 0.24198304 -0.03424163
0.24675441 -0.06674008 -0.03409105
0.22702116 0.11878737 -0.03292578
-0.17000513 -0.19173840 -0.03265912
0.16500889 -0.19603135 -0.03253643
-0.25502259 0.02454177 -0.03214434
0.23476121 0.10191693 -0.03201764
0.12282060 0.22476539 -0.03183802
0.01658146 -0.25566602 -0.03124155
0.13871270 0.21493916 -0.02930135
0.23534864 -0.10075171 -0.02926179
0.17255522 -0.18943578 -0.02891040
-0.23528253 0.10144405 -0.02887499
-0.14247395 0.21277918 -0.02859803
-0.13132524 -0.22001082 -0.02825032
-0.02054916 0.25498819 -0.02821481
-0.24387230 0.07846212 -0.02770892
-0.15501064 0.20333882 -0.02725563
0.21589670 0.13751319 -0.02719485
-0.15158238 -0.20658818 -0.02708126
-0.21101812 0.14533943 -0.02688938
0.19919184 0.16112351 -0.02686793
0.25606740 -0.00817636 -0.02683669
0.24101093 0.08472247 -0.02679259
-0.08104043 0.24273887 -0.02676588
0.24791460 0.06454088 -0.02609377
-0.15787275 -0.20183325 -0.02591639
0.17518806 -0.18699719 -0.02557063
0.07327050 0.24520750 -0.02553789
0.23045880 0.11188325 -0.02540224
0.14146562 -0.21363519 -0.02521673
0.22602110 -0.11993879 -0.02508917
-0.10777996 -0.23243517 -0.02502802
0.25330439 0.03842141 -0.02488612
-0.09062104 -0.23965730 -0.02468790
0.13673183 -0.21671653 -0.02425381
-0.22584449 0.12102024 -0.02378039
0.20354415 -0.15489721 -0.02355507
0.17196405 0.18952028 -0.02316235
-0.01497989 0.25527608 -0.02305765
-0.17791939 -0.18441758 -0.02269501
0.23987819 0.08809847 -0.02254347
-0.15400235 0.20433308 -0.02231306
-0.15837628 0.20087290 -0.02160726
0.21139179 0.14397554 -0.02087743
-0.19911861 0.16130638 -0.02027752
0.19856791 0.16178150 -0.01981081
-0.24216457 0.08362548 -0.01958398
-0.18994719 0.17198943 -0.01931608
0.25582123 -0.01363534 -0.01914093
0.22340247 -0.12430806 -0.01908616
-0.24539822 -0.07359571 -0.01885164
0.17170911 0.18975070 -0.01845674
-0.21595231 0.13787565 -0.01779357
-0.21219845 -0.14361298 -0.01766590
-0.18834631 -0.17375793 -0.01730014
0.15226418 -0.20608950 -0.01712039
-0.21459079 -0.14001821 -0.01698853
-0.20880170 0.14852349 -0.01698777
-0.11984605 0.22646615 -0.01662892
0.22748841 -0.11714407 -0.01638313
-0.17431569 0.18781894 -0.01599352
0.23684601 0.09698687 -0.01597048
-0.22909480 -0.11475831 -0.01569976
0.18395221 0.17786960 -0.01552295
-0.15738975 0.20178810 -0.01528322
0.25379029 0.03505079 -0.01443625
0.20896746 0.14731313 -0.01380522
0.25618410 0.00145950 -0.01364813
-0.17946918 -0.18289895 -0.01334062
0.21621831 -0.13668239 -0.01302779
-0.20773715 0.15002006 -0.01293121
0.14330502 -0.21240999 -0.01283558
0.10342296 0.23440786 -0.01215149
0.00339421 -0.25615406 -0.01169477
-0.25557497 0.01767909 -0.01164021
0.24465345 0.07501328 -0.01151721
0.19981529 0.15993497 -0.01145757
0.09506000 0.23789531 -0.01137569
-0.16182625 -0.19869481 -0.01132018
0.09955925 0.23605999 -0.01108001
-0.07732387 0.24408677 -0.01032255
-0.02098183 0.25507343 -0.01017146
0.04948136 -0.25136948 -0.00992484
-0.19387507 0.16756161 -0.00960749
-0.17563762 0.18657111 -0.00948806
-0.23053645 -0.11182898 -0.00931124
-0.18257946 -0.17979048 -0.00930648
-0.25526309 -0.02186820 -0.00906438
0.09157364 -0.23931725 -0.00876279
0.25566638 -0.01636108 -0.00847897
0.03988403 0.25274459 -0.00797399
-0.10235947 0.23454165 -0.00772641
-0.25369710 -0.03572489 -0.00757894
-0.00278767 -0.25616610 -0.00742557
0.11118359 0.23081547 -0.00717032
-0.22809754 0.11671712 -0.00713856
0.23514801 0.10179482 -0.00625412
-0.10737418 0.23238562 -0.00620593
-0.09351479 -0.23850790 -0.00588592
0.08995988 0.23988736 -0.00577039
-0.08934874 -0.24011928 -0.00486129
0.25353593 0.03632147 -0.00482914
-0.24340247 0.07996331 -0.00472684
0.19901261 0.16086583 -0.00455345
-0.25582528 0.01356895 -0.00436444
-0.19303280 0.16853186 -0.00268830
0.17454594 0.18714735 -0.00266814
0.24697119 0.06741304 -0.00182092
0.21403471 0.14047875 -0.00107547
0.20188624 0.15677918 -0.00094722
-0.24208635 0.08386317 -0.00023929
0.14854838 0.20878360 -0.00012679
-0.25318670 0.03925019 -0.00011856
0.18766093 -0.17448622 -0.00011360
0.10099170 0.23546880 0.00005928
0.11623746 -0.22836952 0.00054851
-0.06793347 -0.24700701 0.00089873
-0.24515235 0.07442942 0.00133024
0.09794779 -0.23675717 0.00137829
0.08577556 0.24142608 0.00202397
0.17397001 -0.18814643 0.00370540
-0.21882468 -0.13332431 0.00436478
-0.07578522 -0.24473710 0.00439279
-0.09234098 -0.23897311 0.00501738
0.19875698 0.16116759 0.00567035
0.23258647 -0.10628054 0.00611027
-0.06692874 -0.24728435 0.00640917
-0.03396847 0.25379035 0.00660736
0.25252491 -0.04071505 0.00776707
-0.11454094 -0.22916889 0.00820349
0.00681576 0.25610721 0.00826565
0.23997942 -0.08873135 0.00860154
-0.25614792 0.00400222 0.00865827
-0.25489059 -0.02581006 0.00947810
0.13840161 -0.21563667 0.00999477
-0.20871747 0.14864430 0.01016467
0.16347063 -0.19731025 0.01030336
0.08682133 0.24100618 0.01031417
-0.15709984 -0.20243056 0.01067267
-0.05578323 -0.25006446 0.01097347
-0.16634773 -0.19492722 0.01114582
-0.23070662 0.11141538 0.01116471
0.19128186 -0.17051069 0.01152578
-0.11847881 -0.22717249 0.01250848
0.24043502 -0.08748951 0.01252866
0.22539553 0.12184916 0.01313582
0.22991608 0.11286852 0.01319601
0.25429416 0.03011081 0.01324657
0.07432184 -0.24518399 0.01345388
-0.00582587 -0.25612131 0.01393715
0.23848507 -0.09235267 0.01443084
0.24697688 0.06738912 0.01456636
-0.07953882 0.24309878 0.01460895
-0.07614626 0.24433772 0.01517764
-0.14712535 0.20917483 0.01546258
-0.24882697 -0.06098252 0.01558823
0.23480904 -0.10081746 0.01602273
0.14882322 -0.20861036 0.01664683
-0.02036037 0.25525948 0.01684535
-0.19095282 -0.17087163 0.01686143
0.11077397 0.23081619 0.01688312
0.13231570 -0.21944107 0.01737300
0.17581889 0.18618569 0.01769911
0.08989868 -0.23994945 0.01791470
-0.12171442 -0.22547056 0.01848306
-0.25016850 -0.05523077 0.01848447
0.06613669 -0.24748732 0.01949641
0.10499951 -0.23373631 0.01988886
0.00778911 0.25608465 0.01994788
-0.03908139 0.25294727 0.02033982
0.23731242 0.09515134 0.02059153
-0.03258596 -0.25411415 0.02082457
0.04830157 -0.25159913 0.02104133
0.10313511 0.23411426 0.02181058
0.16719249 0.19375543 0.02249878
-0.25316662 -0.03928872 0.02256003
0.01935911 0.25536016 0.02256226
-0.25506425 -0.02403831 0.02265869
-0.23459101 0.10301025 0.02415178
0.01901866 -0.25548103 0.02443619
0.23287292 -0.10559529 0.02456948
0.04967009 -0.25133273 0.02465378
0.22097479 0.12971805 0.02467802
-0.11182120 0.23053260 0.02510796
0.23027740 -0.11111733 0.02524603
0.16383730 0.19679038 0.02528968
0.11773700 0.22722676 0.02530565
0.17477266 0.18708964 0.02575733
0.21664466 0.13685019 0.02674269
0.22411385 -0.12301606 0.02689738
-0.16512875 -0.19595955 0.02706857
-0.20083237 0.15914123 0.02741883
-0.13845351 -0.21557936 0.02770790
0.07037307 0.24631672 0.02832161
-0.17562772 0.18635130 0.02912330
-0.23095235 -0.11096215 0.02916383
0.03286674 -0.25408670 0.02963395
0.09900732 -0.23631956 0.02993528
0.23951510 -0.08952359 0.02998696
0.06076958 -0.24888462 0.03006163
0.19096991 -0.17085601 0.03014721
0.25541776 -0.01993172 0.03031119
-0.07570838 0.24432296 0.03082933
0.11307995 -0.22992188 0.03086149
-0.16761899 0.19380052 0.03087060
0.25087133 -0.05042487 0.03098670
0.11707674 -0.22794017 0.03099338
-0.09232297 -0.23899838 0.03105485
0.05286894 0.25070068 0.03197264
-0.25498098 -0.02488783 0.03200952
-0.11553274 -0.22868137 0.03280389
-0.15159787 0.20598927 0.03287315
-0.10929907 0.23174103 0.03292410
-0.23332274 0.10586982 0.03330979
-0.15437135 0.20408951 0.03395346
0.20286840 -0.15564443 0.03423684
0.19417527 0.16670868 0.03436536
0.20112979 -0.15775500 0.03518165
0.20412903 -0.15419020 0.03545824
-0.21719977 0.13593830 0.03595696
0.24460363 -0.07550239 0.03607856
-0.16523246 0.19584279 0.03625513
-0.19947556 0.16085543 0.03628308
-0.17771232 0.18414770 0.03633075
-0.08464923 0.24114448 0.03641223
-0.23521160 -0.10167909 0.03644922
-0.25574699 0.01521017 0.03713144
0.13092354 -0.22028127 0.03722314
0.13371775 -0.21858610 0.03724696
0.03596832 -0.25366446 0.03742570
-0.16769773 -0.19375513 0.03754790
0.14680137 -0.21001241 0.03806506
0.21506198 -0.13891684 0.03839406
-0.16075262 -0.19955224 0.03874101
-0.21714747 -0.13606630 0.03893037
0.02584266 0.25453264 0.03893273
0.25442368 0.03039078 0.03914795
-0.19526026 -0.16593005 0.03920920
0.20261115 -0.15594122 0.03927188
0.21963017 0.13200383 0.03987711
-0.23951665 0.09099127 0.03989774
-0.17840923 -0.18393758 0.03996853
-0.15200776 0.20571296 0.04042413
0.24732219 -0.06556538 0.04111282
0.25121894 -0.04852464 0.04159089
-0.15045832 -0.20741215 0.04200459
-0.04642949 0.25163567 0.04256100
0.13908087 0.21478002 0.04280187
-0.17822269 -0.18412039 0.04286487
0.17790297 0.18416490 0.04305613
-0.13284422 0.21897671 0.04305651
0.16283596 -0.19783793 0.04307953
0.24485607 0.07500954 0.04330542
0.21767332 0.13521355 0.04372820
-0.20197907 0.15769249 0.04453387
-0.25359818 0.03662911 0.04474863
-0.16288143 -0.19782108 0.04475694
0.25250712 0.04344063 0.04529394
0.16508439 0.19561872 0.04549646
0.01395748 -0.25582838 0.04549656
-0.01894456 -0.25548598 0.04557745
-0.05745994 0.24948201 0.04571790
0.22689793 -0.11797091 0.04623571
-0.24957690 -0.05786008 0.04634240
0.08131263 0.24260359 0.04699465
-0.23714766 0.09692960 0.04732130
0.16182302 -0.19868010 0.04782455
-0.21886152 -0.13326405 0.04783244
-0.04254088 0.25222299 0.04798243
0.25201344 -0.04429432 0.04814966
-0.14328213 -0.21240258 0.04838983
0.06596916 0.24754842 0.04895801
-0.19974059 0.16052058 0.04896615
0.24841374 -0.06134645 0.05021394
-0.02727863 -0.25473353 0.05056568
0.25610080 0.00323640 0.05059380
0.19163217 -0.17012291 0.05075603
-0.21661600 0.13684492 0.05076992
-0.14980073 -0.20789419 0.05107492
0.08529230 -0.24163273 0.05170341
0.25426954 -0.02806327 0.05216834
0.25533625 -0.02019384 0.05219995
-0.23860811 0.09329833 0.05254525
0.12887666 -0.22145998 0.05258926
0.11029442 0.23086932 0.05279852
0.25304243 -0.03808351 0.05355106
0.01650137 0.25532147 0.05361741
0.05699570 -0.24979083 0.05369090
0.01303526 -0.25586587 0.05452914
0.07830733 -0.24394777 0.05507401
0.15853840 -0.20130678 0.05510308
-0.25613576 0.00483924 0.05523185
-0.03041674 0.25406015 0.05555934
0.19540313 0.16523889 0.05632571
-0.09837743 0.23657681 0.05745673
0.11858524 0.22671245 0.05778112
0.24752147 0.06522815 0.05897834
0.23038708 -0.11130881 0.05915110
-0.18193407 -0.18045242 0.05994264
-0.12306160 0.22472627 0.06016813
-0.09884367 -0.23635626 0.06025453
0.17876424 0.18312247 0.06062196
-0.17154105 -0.19035067 0.06112513
-0.21030092 0.14636974 0.06164621
-0.14715719 0.20895290 0.06250464
0.13105497 0.21965595 0.06259407
0.15174077 0.20616026 0.06278927
0.20233496 -0.15634759 0.06286655
0.10361025 0.23367679 0.06313541
0.21458276 -0.13958777 0.06379554
0.23043455 0.11202962 0.06384913
-0.22484028 -0.12289434 0.06394257
-0.25186580 -0.04694408 0.06419721
-0.20728108 -0.15065713 0.06422020
-0.11931951 -0.22673216 0.06447210
0.25257239 -0.04092183 0.06501578
0.24923891 0.05869408 0.06505182
-0.07068127 -0.24622902 0.06518991
0.12275773 0.22431412 0.06547829
-0.03057179 -0.25437120 0.06559467
0.25608632 0.00763389 0.06565631
-0.21985738 -0.13163066 0.06569206
-0.25376096 0.03535471 0.06664170
0.25419301 0.03207839 0.06752577
-0.15764523 -0.20201352 0.06805500
-0.23457228 -0.10311671 0.06817385
-0.16770369 0.19370829 0.06845143
-0.14268041 -0.21280406 0.06886788
0.10121576 -0.23540741 0.06889842
-0.25370768 -0.03564717 0.06954657
0.22386341 0.12444583 0.06969595
0.19089282 -0.17083460 0.06971417
-0.06821127 0.24633494 0.07035466
0.10451879 0.23330478 0.07038711
0.23480389 -0.10190577 0.07098245
0.07537948 0.24452789 0.07116575
0.06546790 -0.24766633 0.07130090
0.23760910 0.09473897 0.07133235
0.10423484 -0.23407599 0.07151371
-0.02416191 -0.25506219 0.07168896
0.14814827 -0.20908052 0.07191076
-0.25506666 0.02412313 0.07257906
-0.21304721 0.14231575 0.07300197
0.23410103 0.10415460 0.07311393
0.22696267 -0.11815691 0.07337144
-0.13914464 0.21412201 0.07346433
0.18465886 -0.17767517 0.07384281
-0.06612457 0.24681848 0.07419715
-0.05094285 0.25045142 0.07434739
-0.08480456 0.24088897 0.07501490
0.24534570 0.07367213 0.07502682
0.17163274 -0.19026695 0.07525805
-0.09826955 0.23632598 0.07527155
-0.10016134 0.23560801 0.07587086
-0.17338753 0.18823898 0.07591046
-0.18242781 -0.17994602 0.07609778
-0.25303295 0.04017861 0.07653542
-0.16855738 0.19289224 0.07662179
0.01530746 -0.25576270 0.07664323
-0.23879831 -0.09286219 0.07684264
-0.06032756 0.24829566 0.07684380
-0.23560016 0.10067510 0.07698441
0.18498930 0.17646284 0.07722789
-0.12548631 0.22300537 0.07782044
-0.02814441 -0.25464222 0.07786476
-0.01730752 -0.25560018 0.07793952
-0.20565230 0.15286826 0.07805383
-0.24951369 -0.05812331 0.07826445
0.12525226 0.22272964 0.07831515
-0.25596219 -0.01064756 0.07853054
-0.20745555 0.15040478 0.07922532
-0.23467006 0.10283203 0.07923868
-0.09940609 0.23586512 0.07952868
-0.23206754 -0.10861321 0.07956992
0.23256263 -0.10673299 0.07976450
-0.04071756 0.25242916 0.08004402
0.05760252 0.24931401 0.08039683
-0.24621695 0.07072413 0.08165089
0.05595721 0.24968548 0.08193948
-0.09724829 -0.23701718 0.08204201
0.08929291 -0.24017306 0.08218930
-0.25611860 -0.00563164 0.08221650
0.16272058 0.19738273 0.08273417
0.12203012 -0.22532348 0.08281283
-0.15811606 0.20107658 0.08281894
0.14800386 -0.20918237 0.08282155
-0.13507132 0.21701561 0.08285395
0.08261399 -0.24254796 0.08298717
-0.14350331 0.21107247 0.08431653
0.24367559 -0.07839278 0.08490089
-0.19670536 -0.16419850 0.08490303
-0.25178102 0.04732832 0.08521298
0.08457148 0.24112844 0.08554360
0.25384301 -0.03208332 0.08632959
-0.20796813 -0.14971249 0.08704506
0.25602806 0.00473592 0.08734249
0.25601253 -0.00505436 0.08746371
-0.12692855 0.22218502 0.08770612
0.23026808 -0.11154605 0.08775277
0.18187307 -0.18051620 0.08786727
-0.10772480 0.23211047 0.08808242
0.25541419 0.01989760 0.08814506
-0.07501765 -0.24497113 0.08828621
0.24977271 -0.05628328 0.08856105
0.16599560 -0.19520229 0.08884203
-0.24910747 -0.05980810 0.08893540
0.23711069 0.09621735 0.08915351
0.06636769 -0.24742383 0.08938432
-0.05465499 0.24960253 0.08939788
0.05883465 0.24897435 0.08978926
-0.04293978 0.25217792 0.08986184
0.14840151 0.20806783 0.08986264
0.14473335 -0.21145467 0.09002116
0.21218468 -0.14329682 0.09026931
-0.19485936 -0.16638589 0.09046525
0.22503537 -0.12214746 0.09104535
0.24003354 -0.08979981 0.09123197
-0.12571630 0.22308308 0.09161726
0.06913824 -0.24692221 0.09168784
-0.05347874 0.25018114 0.09185003
0.17952016 0.18284540 0.09288203
0.14548410 -0.21156411 0.09309752
-0.22616179 0.12093040 0.09345933
-0.22572884 0.12187178 0.09347165
-0.18894334 -0.17309336 0.09510164
-0.04367433 -0.25284678 0.09608578
0.00904144 0.25561091 0.09641885
0.21454963 -0.14118710 0.09653297
-0.15674925 -0.20281459 0.09654148
-0.01293978 -0.25570831 0.09654744
-0.14037688 -0.21513785 0.09710958
-0.06517297 -0.24793912 0.09719456
0.09797487 0.23789492 0.09763625
-0.02205488 0.25468025 0.09775339
-0.02806464 -0.25442326 0.09783272
-0.11667453 0.22913182 0.09864822
0.18553254 -0.17873807 0.09996576
-0.20460272 0.15765762 0.10009082
0.09339580 -0.24092679 0.10067453
0.25653782 0.02616972 0.10105247
0.17979768 -0.18523848 0.10121651
-0.22182737 -0.13180362 0.10123727
-0.06350498 -0.25052387 0.10158553
0.25600225 0.04154769 0.10201021
0.18059415 0.18646510 0.10249309
0.24295491 -0.09229773 0.10255187
0.06603093 0.24997970 0.10274171
0.23610787 -0.10675103 0.10292868
-0.10158933 -0.23930858 0.10311475
0.16589846 0.20064288 0.10344838
0.19506560 -0.17104818 0.10361644
0.25665754 -0.04255673 0.10366579
-0.05958048 -0.25396234 0.10379227
-0.18600112 0.18067761 0.10390263
0.05888313 0.25462359 0.10402167
-0.25614285 -0.05334885 0.10413076
-0.25992972 0.00119355 0.10476636
0.19994685 0.16818947 0.10491693
0.22842272 0.12722045 0.10492004
-0.19955690 0.16714925 0.10492443
0.25169519 0.07028879 0.10505590
0.08839265 0.24883564 0.10518160
0.10607049 -0.23860596 0.10520867
0.25692207 -0.05040170 0.10541576
-0.25923580 -0.03872110 0.10548107
-0.03547872 0.25942299 0.10566252
-0.16156515 0.20637323 0.10574230
0.12391743 0.23172323 0.10588760
0.16157857 0.21256028 0.10624088
-0.25355908 -0.07566878 0.10672119
-0.21438810 -0.15950374 0.10695431
-0.13352703 -0.23094058 0.10707918
0.23281592 -0.12615414 0.10755160
-0.00491229 -0.26489776 0.10762087
-0.25884494 0.06282530 0.10769999
-0.19281633 -0.18689407 0.10788349
0.03608752 0.26639232 0.10792677
-0.26319778 0.05101191 0.10839220
-0.26987290 0.01171493 0.10845379
0.03641101 -0.26859635 0.10846400
0.06287655 -0.26146597 0.10850524
0.24032575 0.13180694 0.10860403
0.26295629 -0.06233712 0.10860763
-0.01011921 -0.30875361 0.10864800
0.05639118 -0.29207766 0.10864800
-0.09435341 -0.29041955 0.10864800
0.09326475 -0.29011765 0.10864800
-0.06540169 -0.28593040 0.10864800
-0.08246227 -0.28323328 0.10864800
-0.05327665 -0.28277481 0.10864800
0.10481187 -0.28202033 0.10864800
0.12600073 -0.27935085 0.10864800
0.08671897 -0.27899581 0.10864800
-0.15075310 -0.26112753 0.10864800
0.15891409 -0.26111200 0.10864800
0.18151586 -0.25865209 0.10864800
0.10546766 -0.25840190 0.10864800
0.19665603 -0.25386971 0.10864800
0.13805652 -0.25359768 0.10864800
-0.15758973 -0.25248379 0.10864800
0.16121808 -0.24493353 0.10864800
0.14165822 -0.23937394 0.10864800
-0.18247034 -0.22866124 0.10864800
-0.20911786 -0.22729009 0.10864800
-0.22816105 -0.19891305 0.10864800
0.25165778 -0.19182801 0.10864800
0.25853568 -0.18411294 0.10864800
0.22210425 -0.18319565 0.10864800
0.24233383 -0.17572831 0.10864800
-0.26565623 -0.15319884 0.10864800
0.27341801 -0.14011268 0.10864800
-0.27544555 -0.12147356 0.10864800
0.27573746 -0.10521872 0.10864800
0.29361138 -0.09910475 0.10864800
-0.27502987 -0.09806121 0.10864800
-0.30061227 -0.08786064 0.10864800
0.27803674 -0.07396029 0.10864800
0.28982764 -0.05343014 0.10864800
0.27639577 -0.04224239 0.10864800
-0.29478589 -0.03245318 0.10864800
-0.28588510 -0.03065483 0.10864800
0.28084227 -0.02151292 0.10864800
0.30112916 -0.01227578 0.10864800
-0.30135912 -0.00099889 0.10864800
-0.30165669 0.00489409 0.10864800
0.27935484 0.00639995 0.10864800
-0.29020566 0.01235655 0.10864800
0.28936735 0.01409863 0.10864800
-0.28243566 0.02177021 0.10864800
0.30000448 0.02864775 0.10864800
0.30782723 0.03049038 0.10864800
0.30445677 0.03576414 0.10864800
-0.29186422 0.03798610 0.10864800
-0.30374241 0.03936030 0.10864800
0.31115377 0.04777720 0.10864800
0.29059535 0.05541557 0.10864800
-0.30491927 0.06446854 0.10864800
-0.28503576 0.06611884 0.10864800
0.28633022 0.07982369 0.10864800
0.28059822 0.08302706 0.10864800
-0.28086340 0.10955473 0.10864800
0.26800418 0.11067773 0.10864800
0.28834969 0.11329608 0.10864800
-0.25677392 0.12999284 0.10864800
0.26416299 0.13047571 0.10864800
0.27254999 0.13312240 0.10864800
-0.26653433 0.14232223 0.10864800
0.23953514 0.16271943 0.10864800
-0.21644183 0.16838144 0.10864800
-0.26294979 0.16889445 0.10864800
-0.23147602 0.18023872 0.10864800
0.25519842 0.18459848 0.10864800
-0.24387129 0.18902560 0.10864800
-0.19447803 0.19064027 0.10864800
-0.23101915 0.19237451 0.10864800
-0.18909018 0.19753563 0.10864800
0.23817849 0.20216790 0.10864800
-0.19787614 0.21073191 0.10864800
0.21722952 0.21174069 0.10864800
-0.17082655 0.21407464 0.10864800
0.22051367 0.22042008 0.10864800
0.20940861 0.22042023 0.10864800
-0.15960853 0.23153558 0.10864800
-0.21441019 0.23333251 0.10864800
-0.14888783 0.23463574 0.10864800
-0.14788865 0.24100971 0.10864800
-0.14323846 0.24272002 0.10864800
-0.19153979 0.24464285 0.10864800
-0.15779066 0.25178221 0.10864800
-0.18171234 0.25384846 0.10864800
-0.11214564 0.26221535 0.10864800
0.12714878 0.26572487 0.10864800
-0.16152656 0.26625028 0.10864800
-0.17648749 0.26721638 0.10864800
0.13057756 0.26911849 0.10864800
-0.07295723 0.27734810 0.10864800
0.09046324 0.28164536 0.10864800
-0.12490521 0.28424746 0.10864800
0.11417330 0.28668123 0.10864800
-0.10323869 0.28859565 0.10864800
-0.01311990 0.29081950 0.10864800
0.07249685 0.29232243 0.10864800
0.08406821 0.29946768 0.10864800
-0.00955941 0.31140709 0.10864800
0.04252084 0.31182805 0.10864800
-0.05876109 0.31328088 0.10864800
0.02005059 0.31362444 0.10864800
0.11805709 -0.25050172 0.10864807
0.03325285 -0.27705106 0.10864822
0.19081567 0.20901163 0.10864826
-0.31076616 0.05503636 0.10864826
0.07844254 0.27047619 0.10864837
-0.15140405 -0.27145287 0.10864845
0.18252778 -0.26365170 0.10864849
-0.14364731 -0.24043958 0.10864859
0.21207240 0.22999774 0.10864894
-0.24777643 -0.13155471 0.10864900
-0.05064658 -0.27511466 0.10864902
-0.23241591 0.22126149 0.10864947
-0.24099852 0.12724519 0.10864995
0.08654343 0.30193558 0.10865003
0.22707984 0.16515940 0.10865012
-0.11027222 -0.25554979 0.10865048
0.26445723 0.07883117 0.10865051
0.27070451 0.06377187 0.10865066
0.24040031 0.20495223 0.10865097
0.27339500 -0.02432176 0.10865107
-0.09049513 0.26064903 0.10865257
0.27420244 0.01207700 0.10865279
0.24347746 -0.12381816 0.10865295
-0.27118203 0.00749120 0.10865400
-0.26979718 0.04991282 0.10865442
0.22377729 -0.15770301 0.10865689
0.25310487 0.18952532 0.10865796
0.21000965 0.23905426 0.10865844
-0.23796900 0.21815544 0.10865904
-0.22051914 0.23720811 0.10865939
0.13241279 0.24450505 0.10866002
-0.22061358 0.15994337 0.10866196
-0.16824520 -0.27066654 0.10866378
0.17260423 0.26677817 0.10866752
0.29981372 0.11082768 0.10867020
0.29928556 0.11117056 0.10867109
-0.19495502 0.18350586 0.10868071
0.31933820 -0.02515439 0.10868072
0.07830757 -0.25803518 0.10868263
0.15286312 0.22717442 0.10868330
0.23769791 -0.12726401 0.10868379
0.13112547 0.29248294 0.10868387
-0.25462312 0.20002587 0.10868507
0.32008594 0.01099725 0.10868821
-0.09676427 0.25055015 0.10869119
-0.06627312 -0.31380147 0.10869657
-0.29183328 0.14259605 0.10870203
0.30737644 -0.10428593 0.10871398
0.10559649 0.30339527 0.10872338
0.31905979 -0.05692640 0.10873122
-0.12965833 0.29945332 0.10875006
-0.31582311 -0.07585925 0.10877946
-0.26449421 0.19349028 0.10879353
0.15280257 0.28558695 0.10879970
-0.08512811 0.31549779 0.10880289
0.31805250 -0.06840655 0.10881526
-0.18735413 0.26839316 0.10882821
-0.22033466 -0.23516640 0.10883781
0.26615924 -0.19218482 0.10884374
0.04855116 0.32208785 0.10888870
0.14475033 -0.29426807 0.10890121
-0.25936586 0.20141685 0.10891724
0.29916832 -0.13495079 0.10894714
-0.21886463 -0.24164861 0.10902720
0.27086216 0.18258864 0.10906077
-0.27883083 0.17662494 0.10910647
-0.01064055 0.32814315 0.10911185
-0.14710680 -0.29287836 0.10912314
-0.15837079 -0.28637740 0.10913625
-0.14178444 -0.29539451 0.10920768
-0.21309836 -0.24909383 0.10927769
0.01320161 -0.32986006 0.10929316
0.32922408 -0.03646284 0.10943631
-0.32950616 -0.03089111 0.10947295
0.00196549 0.33078617 0.10948543
-0.07759450 -0.32190454 0.10961359
-0.23246354 -0.23495401 0.10966100
0.24661076 0.22093871 0.10971286
0.13776073 0.30068952 0.10979372
-0.32658702 0.06100924 0.10983215
0.10061312 0.31559917 0.10983366
-0.33188382 -0.02140995 0.10991272
0.30106038 0.13932198 0.11009265
-0.19725506 -0.26780695 0.11013986
0.12714536 -0.30834293 0.11015204
0.00094065 -0.33328712 0.11022913
-0.10264803 0.31735545 0.11023835
-0.24430929 -0.22614661 0.11031824
0.33170047 -0.04083521 0.11044792
-0.16034251 -0.29241449 0.11046413
0.32979119 0.05039579 0.11049671
-0.29387674 -0.15801595 0.11054455
0.05321004 -0.33029059 0.11073907
0.16676271 -0.29072294 0.11084384
0.32447186 -0.08369549 0.11087769
0.20588098 0.26298636 0.11088708
-0.07109631 0.32772925 0.11103398
-0.33251202 -0.04078773 0.11109672
0.17583677 -0.28585073 0.11116637
-0.17132208 -0.28833368 0.11118905
0.16423625 -0.29290819 0.11119027
0.27874359 -0.18747987 0.11120281
0.33216688 -0.04865691 0.11134207
0.31016260 0.12806769 0.11137398
-0.13641620 0.30710697 0.11140741
0.28747100 -0.17468715 0.11145656
-0.06854072 -0.32892883 0.11150084
0.23623115 -0.23966438 0.11168390
0.32185015 -0.09843295 0.11174151
0.09412886 -0.32342523 0.11194089
-0.06110710 0.33133733 0.11208507
-0.27870429 -0.18891303 0.11214770
0.06371979 0.33119988 0.11220443
-0.16921346 0.29183224 0.11222640
0.32731438 -0.08077562 0.11228267
-0.23129143 0.24559948 0.11234386
-0.31522804 0.12033364 0.11235468
-0.15127504 0.30181003 0.11241990
0.06529896 -0.33126527 0.11242796
-0.33640632 0.02721110 0.11246547
-0.32436788 -0.09349024 0.11250490
0.32098570 -0.10401971 0.11259773
-0.33772978 -0.00476699 0.11264019
0.22365426 0.25223726 0.11270549
0.19027936 -0.27933225 0.11282954
0.32999328 0.07195976 0.11299588
0.19892436 -0.27320179 0.11305156
-0.01951911 -0.33785260 0.11337949
0.33816230 -0.01457199 0.11345356
0.21193476 0.26252091 0.11348873
-0.24613497 0.23174097 0.11348981
0.09004762 0.32574844 0.11350840
-0.09500648 0.32466418 0.11355025
-0.32664272 0.08764552 0.11381834
-0.13248397 0.31167099 0.11405264
0.32782558 0.08280540 0.11424262
-0.17870028 0.28765497 0.11430069
-0.29378012 0.16890468 0.11436271
0.32426420 -0.09847850 0.11439595
0.19413909 0.27687848 0.11441419
0.33908895 -0.00084005 0.11450873
-0.18611081 0.28336385 0.11457831
0.33729213 -0.03389670 0.11464815
0.25481093 -0.22346747 0.11467205
-0.28053761 0.19041008 0.11482045
0.33930436 0.00329075 0.11494565
-0.33834851 -0.02525665 0.11499200
-0.00955223 -0.33921665 0.11503381
-0.07782742 -0.33026150 0.11503502
0.22376716 -0.25527582 0.11524929
0.20105858 0.27316329 0.11536288
0.23318444 -0.24665797 0.11552592
0.11292087 -0.32017979 0.11576389
-0.33401638 -0.06217296 0.11576481
0.22770077 -0.25200811 0.11578287
0.01338700 0.33961567 0.11597101
0.14397772 0.30799040 0.11637139
-0.07468785 0.33187664 0.11674625
-0.31093979 -0.13837925 0.11706109
0.24210358 -0.23873812 0.11728532
-0.30710465 0.14707752 0.11730826
0.31726363 -0.12373777 0.11756966
-0.25511655 -0.22512902 0.11763835
-0.27140701 0.20599398 0.11764688
-0.33567780 -0.05546898 0.11765543
-0.32229230 -0.11028949 0.11787669
0.23206761 -0.24866068 0.11793665
-0.30631587 -0.14880353 0.11797342
0.21287847 -0.26586685 0.11814266
0.12050536 0.31839108 0.11843684
0.23990807 0.24164972 0.11874581
0.34010357 0.01980093 0.11876003
0.19866806 0.27643234 0.11877023
0.05126789 0.33643830 0.11882577
-0.31649914 -0.12607773 0.11900157
-0.29646626 0.16742398 0.11901908
0.22522202 -0.25542796 0.11929659
0.14933331 -0.30615902 0.11934775
0.01672078 -0.34038195 0.11939360
-0.34021646 0.02012507 0.11940151
0.33455822 0.06488281 0.11975643
0.30129433 -0.15964895 0.11976016
0.11889704 0.31936875 0.11989177
0.30284610 0.15680848 0.12013452
-0.09078950 -0.32833710 0.12015922
-0.05699217 0.33592007 0.12022074
-0.09105571 0.32821065 0.12029687
-0.32168123 -0.11292940 0.12076139
0.14727131 -0.30770010 0.12077121
0.06860254 0.33405417 0.12083172
-0.24360920 0.23827097 0.12107224
0.31611368 -0.12739927 0.12123803
0.11578304 0.32064089 0.12136515
0.21422870 0.26517272 0.12138659
0.23383816 -0.24779658 0.12150184
0.12373800 0.31758612 0.12158722
-0.30935514 0.14386636 0.12213573
0.01101546 0.34075654 0.12219223
-0.02433555 0.34019217 0.12243827
-0.13946894 -0.31113359 0.12243849
-0.23361297 -0.24807937 0.12251437
-0.10764999 -0.32393506 0.12260798
-0.00524868 -0.34084600 0.12263670
-0.26606062 0.21288346 0.12307987
-0.12736455 -0.31624085 0.12340048
0.16493347 -0.29826218 0.12357496
-0.07910752 -0.33174106 0.12393662
-0.33954921 -0.03287771 0.12395329
-0.19749169 -0.27742764 0.12431297
0.33157387 -0.07936191 0.12457198
-0.04120015 0.33775979 0.12458184
0.33403668 0.06664991 0.12459286
-0.29079679 -0.17715208 0.12463424
0.21386094 0.26514661 0.12475551
0.33994162 0.02753564 0.12488391
0.28533024 -0.18577154 0.12507401
-0.08609906 0.32919139 0.12517393
0.31655148 -0.12538634 0.12529449
-0.17195557 0.29385749 0.12535007
0.29745477 0.16570956 0.12591249
-0.02862594 -0.33937883 0.12594572
0.04672819 -0.33687899 0.12600575
-0.19393221 0.27940708 0.12645416
-0.03212589 0.33856919 0.12669423
-0.19819397 -0.27572319 0.12670647
-0.32979694 0.08264086 0.12679560
-0.28979164 -0.17728201 0.12687358
-0.30898228 -0.14209805 0.12689091
-0.00536880 -0.33994249 0.12693726
-0.30526039 -0.14853384 0.12721337
-0.10468989 -0.32321307 0.12739882
-0.31542286 0.12499014 0.12753914
0.22740987 0.25216031 0.12758788
-0.00319613 0.33962688 0.12767136
0.25651965 0.22245146 0.12786125
-0.21653731 0.26115838 0.12793037
0.29829022 -0.16148429 0.12799919
0.20616269 -0.26962778 0.12818751
0.28971741 -0.17592128 0.12827198
0.33905897 0.01538621 0.12829860
0.32892999 0.08211195 0.12836920
0.26676157 -0.20934063 0.12848237
-0.00917973 -0.33906150 0.12860155
-0.10135895 -0.32337952 0.12885812
-0.11780410 0.31760061 0.12894234
-0.12291862 -0.31571186 0.12922058
0.19439325 0.27692103 0.12929361
0.26534092 0.21009763 0.12958413
0.15495573 -0.30090746 0.12963732
-0.11714739 -0.31725276 0.12969828
0.29550835 0.16443050 0.12992045
0.23763226 -0.24054475 0.13013835
-0.23687698 -0.24068120 0.13014479
0.07282893 0.32968962 0.13027406
-0.06374623 -0.33143216 0.13037270
-0.31386811 0.12337224 0.13075201
0.33106324 0.06332400 0.13075282
0.18527876 0.28051668 0.13144533
-0.33076939 0.06080765 0.13153268
-0.08796337 0.32436639 0.13159484
0.22689745 0.24701865 0.13160209
0.05305950 -0.33125037 0.13189805
0.10775300 -0.31753635 0.13196947
0.30755123 0.13310608 0.13198276
-0.33380079 0.02557981 0.13231857
-0.33293074 0.03357217 0.13236070
0.20943175 -0.26226565 0.13239175
